# .PCD v0.7 - Point Cloud Data file format
VERSION 0.7
FIELDS x y z
SIZE 4 4 4
TYPE F F F
COUNT 1 1 1
WIDTH 1269
HEIGHT 1
VIEWPOINT 0 0 0 1 0 0 0
POINTS 1269
DATA ascii
-278.076985 -702.2500824 257.8490949
-299.8607491 -671.1709757 257.6323342
-266.9230784 -657.3456184 254.9257129
-251.1849876 -670.9489893 252.4178082
-270.4162786 -665.5092583 255.4906651
-259.3693372 -665.5174516 253.2204306
-289.5038714 -707.7100693 255.401536
-260.4523619 -692.4017491 250.2229463
-252.4613493 -723.5421484 262.2461836
-283.9024049 -652.5160643 255.9872108
-264.5071575 -735.269797 264.4139255
-267.7744185 -655.8042383 254.3862389
-289.2096853 -699.5588082 248.6078318
-266.4658028 -661.724687 253.1613434
-284.5843186 -653.6161554 255.8733178
-278.344902 -705.3781504 253.8617269
-253.3531594 -728.493812 262.3199035
-262.5632161 -676.6385775 252.3360271
-246.1054628 -711.4427155 249.8980362
-289.2325772 -668.194483 257.3476896
-250.6707392 -662.7302269 252.0837509
-284.2946809 -683.4282318 255.8112151
-257.8319528 -672.7721922 254.0350086
-288.1371743 -692.7158079 256.284105
-272.278787 -742.1102627 265.3781987
-285.9639988 -676.6001657 256.9234042
-272.1313567 -757.8838827 269.8019668
-278.8639332 -679.2969724 251.9389412
-266.8752335 -690.8171807 254.5553817
-298.7407176 -668.3097032 257.3296745
-273.0653439 -710.6142849 253.893612
-262.6677363 -739.9682236 263.1518531
-265.8220141 -721.3844249 264.0678052
-274.6574893 -712.8726286 259.945558
-267.3777563 -727.7559265 264.7054023
-282.8708376 -668.4583788 256.8578313
-267.3153892 -709.362121 238.030288
-285.5510673 -685.8227125 257.807065
-245.7387494 -696.918713 250.5538667
-244.686768 -727.3526146 263.0709257
-268.6586543 -732.4204048 263.9087632
-295.1560601 -674.4665241 256.8304593
-241.303094 -696.1358626 256.2809888
-254.3373995 -666.0240026 252.8363978
-279.567688 -704.7770205 253.9031881
-269.5538399 -729.0981859 264.5982082
-257.0085663 -676.9719426 253.1508385
-289.4026998 -684.6858942 256.2869475
-262.6196797 -683.2768811 253.6841287
-283.5010838 -713.1981489 254.1923992
-282.6909826 -703.4706102 257.2486205
-296.6135476 -683.8950022 257.0592418
-272.8540211 -710.0448011 253.6758593
-274.5296229 -662.2401443 258.7424849
-282.0571619 -713.5048066 253.9435333
-279.0800792 -657.365968 253.4853412
-245.5845699 -709.2068919 249.6627348
-285.6155181 -708.8903003 254.3342504
-293.9452582 -679.9576944 256.6949304
-279.5267134 -699.5252527 260.066313
-295.4628035 -671.8697858 256.8628486
-247.6672902 -703.3478174 251.1268575
-250.1851772 -718.8618053 261.1750091
-293.8586463 -655.2540598 256.9800826
-266.0453066 -728.8754084 264.3030976
-294.2842381 -673.9156148 256.6689253
-263.7627285 -709.0241364 256.1636795
-272.1702533 -656.7702268 254.9621397
-289.8584976 -652.2721768 256.7417034
-259.1136313 -683.959388 253.3036961
-250.9755803 -701.2755363 251.1426808
-253.0848885 -730.7085695 262.2830038
-282.7843738 -667.0518647 257.0443069
-282.1089832 -660.9234169 255.7820104
-274.4425237 -713.9540433 259.066927
-252.3155315 -669.4993045 252.6087868
-254.6344117 -666.5785216 252.8631139
-258.3515964 -662.4785139 253.438371
-285.6769622 -649.2786724 256.2446693
-287.9161038 -704.0123688 254.76138
-255.8500331 -703.789367 253.314625
-251.5972032 -699.8477094 251.092309
-259.4705362 -673.4482976 253.0731024
-294.5513021 -676.2095137 256.7637355
-267.4571167 -750.7598083 269.4217899
-268.6665066 -656.1341871 255.1709494
-263.7168991 -699.6411311 254.1207032
-266.2069048 -745.5011966 266.1097015
-267.2609319 -671.8468099 252.1269664
-243.9484884 -705.0675654 249.9055803
-252.6477633 -698.483615 252.1933136
-274.5548093 -677.2964882 255.9552238
-274.9472345 -711.6468316 263.3718986
-278.7736558 -679.6039443 252.1368249
-260.1491975 -719.8088513 263.1856089
-255.6120171 -731.2262216 262.6852042
-252.9505583 -692.7904026 251.3971277
-247.3364734 -726.6632751 261.6871512
-275.4405389 -645.4476871 255.3060214
-263.5708962 -647.1431578 254.0501143
-293.2399701 -651.8208862 256.9654436
-258.5066234 -650.252344 253.6716319
-265.4857495 -655.598085 253.9645501
-285.8130451 -677.210557 257.249328
-275.639076 -654.0791457 255.5641274
-294.851211 -679.6419255 256.7866928
-286.6071997 -706.5316669 248.7905702
-277.7496487 -705.290592 261.262617
-299.616152 -660.2152215 257.5521727
-265.3294268 -666.1218573 253.6801753
-285.8746114 -669.9096965 255.7775543
-260.8573446 -666.7572725 254.7858928
-282.8740316 -656.0457739 256.1673073
-279.5302155 -693.351514 256.6880384
-281.1394333 -683.210021 255.1832453
-265.99963 -703.5763994 255.2249512
-238.4171912 -700.698616 256.8656721
-267.4974725 -731.8811042 263.7863466
-277.6398896 -653.6415909 255.2780365
-288.847467 -696.2997555 254.796597
-256.9654992 -739.1994489 262.4142059
-282.6841976 -693.4599372 255.9150698
-266.0726623 -757.0800331 269.2006778
-277.1422122 -698.8840003 257.8384108
-252.7927599 -738.9951934 263.0607457
-267.0186274 -668.0629347 251.2499235
-267.2181317 -659.8128371 254.2561926
-258.6760842 -664.4425951 253.4078339
-256.4675316 -692.9635123 251.7218987
-263.7336436 -708.3613674 259.0276251
-281.5200764 -666.8373961 257.0793962
-270.8199266 -699.4983722 259.5624257
-256.4246556 -741.4110972 262.2991273
-275.6972188 -656.9291852 255.4436677
-260.2384068 -727.5594178 263.0748269
-254.3735436 -670.2706546 252.8053214
-254.7660792 -695.5933109 252.172259
-269.5383693 -668.6745915 255.3919656
-270.4207144 -673.0485109 254.1137857
-267.1618604 -679.5411891 255.2203275
-253.4636949 -692.2245061 251.6163267
-292.8294848 -673.3860745 256.4106212
-255.8625412 -705.9846597 252.5863109
-274.2968506 -710.5818935 253.9049306
-256.985971 -752.7198061 268.0442682
-266.6152785 -667.1792723 253.5610588
-260.6528659 -668.1595042 254.5583513
-268.4327667 -674.2949367 254.3958327
-265.8040505 -705.5350608 254.9787778
-281.136839 -670.1609195 255.8778073
-290.8027707 -652.219903 256.7526428
-264.7402223 -706.2177807 260.904113
-287.9601609 -672.483789 256.6922034
-302.8244442 -666.9862365 257.4973477
-274.894881 -654.4386859 255.8302217
-258.8424138 -681.4128106 253.1881069
-250.1591665 -695.0953626 250.8244978
-265.7383369 -667.8515321 251.3468791
-269.8448683 -759.5388444 269.5307109
-287.9941692 -670.9001348 255.2713037
-296.3425546 -681.8904584 256.9703269
-273.829308 -661.5662218 257.5377283
-250.8476168 -678.3237179 252.6011274
-269.2831379 -661.1614794 254.5001542
-251.1154211 -678.782771 248.2741592
-262.4678769 -693.5111607 243.3497326
-255.1886793 -734.0179663 263.6959549
-251.0599767 -694.5011681 250.8392092
-248.7209879 -711.6590059 250.1474466
-293.6432632 -675.66786 256.6795066
-254.817869 -655.5154386 253.0291181
-264.6580276 -707.0703529 261.0986276
-283.6550101 -689.6670464 255.1634482
-263.5677082 -663.5023483 254.8828615
-257.7295924 -656.533497 253.3963746
-248.9579988 -685.1077417 255.0446015
-264.463429 -738.0568863 265.2254324
-264.04024 -753.52348 269.0236568
-251.1312953 -720.8236028 262.5245836
-270.1510149 -736.8420059 264.0113024
-246.6104344 -726.9656029 262.0052006
-272.986459 -758.7071099 269.9211359
-271.738196 -744.0313127 263.9056319
-271.3618653 -761.4606561 269.5274575
-270.1206341 -688.9602535 257.6315499
-254.3197019 -652.4704018 253.4439625
-275.8968738 -754.2935062 270.154238
-261.4570753 -743.3341719 265.2560494
-266.2321413 -689.656329 253.9043806
-237.8531079 -711.9131422 259.2256513
-251.3005651 -691.404115 250.9501038
-269.3287961 -651.9993648 254.3656117
-288.6419536 -697.1391731 254.5544395
-301.726352 -664.4636168 257.7728206
-270.6824484 -686.0645156 257.0465056
-279.842183 -671.8767415 255.2942036
-297.3005351 -662.2960896 257.0529646
-257.1618623 -654.5571714 253.2700186
-302.1778442 -673.3478001 257.4393025
-302.0408872 -674.5306739 257.7064797
-283.0033165 -686.3385135 255.9017024
-267.1191406 -713.0729107 248.5616901
-269.4804379 -726.3054245 264.0698189
-246.9394474 -715.3462993 250.1272957
-293.2723817 -667.8776237 256.1628186
-264.0841068 -700.2285791 254.6844403
-251.0511728 -697.0411953 250.9034008
-263.0925735 -751.6034847 269.7741486
-258.5790156 -752.460574 268.4611266
-276.66177 -697.841993 258.8828697
-267.3241577 -668.403046 251.9579089
-301.3175488 -662.4858615 257.9728995
-296.7251092 -653.4429689 257.6420616
-263.3979745 -730.5789063 264.1495569
-266.0554768 -680.8489498 253.5342231
-268.3110008 -698.0827957 254.1431508
-297.8509992 -659.9804277 257.2456031
-260.3035027 -679.952582 253.341445
-287.1834654 -660.5144238 257.0356555
-282.5882951 -659.5449815 254.050075
-259.3181156 -713.0068012 254.5462913
-260.3878009 -650.1356592 253.5943732
-241.0560294 -716.5658456 260.1817645
-276.0484369 -752.6388764 270.4769444
-280.1807857 -655.3825712 256.5713283
-276.0446966 -692.1948326 254.7845466
-265.4649852 -741.3657542 265.7112521
-265.5564736 -705.6321168 256.2486707
-255.2765757 -733.1836399 263.4826104
-266.2337512 -703.0085852 259.560265
-254.1575964 -691.3912049 252.1229811
-275.7122617 -649.4680905 255.4020624
-282.6833165 -680.9910402 256.5769221
-281.1917701 -658.1680596 256.3995458
-275.0539481 -683.7140666 254.8692919
-253.8473964 -680.5210936 253.441787
-264.6486686 -659.3301475 253.7808254
-279.3520039 -692.7670455 256.3933911
-279.0845051 -661.1348457 256.2373408
-253.6203368 -656.995057 252.9797782
-273.0889044 -745.6970614 264.9601648
-266.5041187 -719.3484028 262.4972528
-289.2556888 -674.7131678 256.6196813
-242.2558307 -701.8331705 251.0423087
-272.2923446 -744.3053358 264.0265207
-267.2352594 -669.1516222 253.5821704
-291.166782 -697.4814283 256.5327381
-252.7310794 -696.7796113 251.9730797
-263.4147636 -752.9762478 269.0654235
-262.433117 -674.8234126 254.0407809
-267.1698133 -669.2335647 251.6151004
-295.0743909 -656.643848 257.0858921
-259.4810561 -667.6336868 254.4220932
-277.6815708 -681.4238053 255.9221555
-254.5250584 -730.6848146 262.4137162
-278.1542308 -649.9103839 255.523538
-255.4321846 -691.105042 252.7046563
-279.5405127 -693.6328106 256.6664862
-263.1886908 -682.4122808 253.7789201
-272.7101809 -656.9644314 254.4475291
-269.8273909 -646.2684487 254.6178382
-252.8307521 -732.915847 262.2017329
-300.8984039 -671.9681041 257.4572331
-245.4752786 -707.5461488 249.9109634
-272.5979955 -721.2569891 264.556654
-260.9608651 -650.4000874 253.6957063
-264.0571413 -695.1922552 239.6511337
-296.3336792 -668.1078525 257.0489187
-246.7821212 -701.0738294 250.2901203
-270.8008787 -741.8234035 263.9486874
-257.175948 -689.3581686 252.8790665
-273.5631243 -742.9293056 266.5753602
-255.8091704 -665.395447 252.9632877
-260.9589631 -741.3673145 262.9403781
-262.3652333 -701.4005579 254.4404618
-280.8159811 -677.0154607 255.8806795
-259.5592901 -744.7130947 264.1067127
-270.5404598 -724.6315355 264.4107201
-263.5234436 -696.4866975 253.1445176
-296.0566832 -671.563766 256.9487569
-267.3497017 -729.9533134 264.1030215
-251.1755248 -673.2123667 252.4653709
-269.8722004 -741.2807945 263.9817236
-284.0009706 -659.4667418 256.4448079
-260.6470713 -718.9635608 263.4116035
-245.307084 -692.5301808 255.2185379
-262.2647431 -727.8298251 263.9648546
-280.8777803 -696.9711748 260.4927133
-283.6509323 -714.0979558 255.2181663
-266.0496647 -705.1683745 253.7151463
-244.8862455 -698.6290614 250.4487287
-268.9696847 -763.1078547 270.1750144
-272.5147355 -688.1459186 255.7229535
-254.5271614 -677.1556592 253.9579349
-287.4607995 -665.315888 253.7462097
-253.642423 -743.9616049 264.6322985
-298.1633178 -679.5365861 257.1519813
-290.6293878 -703.4633435 256.3330937
-263.9656826 -706.7822213 241.453815
-263.2413505 -664.0932053 254.9300028
-278.895086 -697.9003643 256.7131176
-252.448357 -723.2672619 262.2740983
-285.2982062 -645.2777917 256.387754
-294.5554716 -702.4664736 256.0180454
-254.2491196 -657.2409349 252.9425732
-280.9982414 -674.2106793 253.4506099
-291.4067625 -673.7111991 256.0851825
-262.1654381 -693.2376131 243.3291664
-272.7281357 -755.1295245 269.144299
-247.6282545 -699.9320326 250.4213496
-256.9517946 -659.3879922 253.0963002
-256.7554796 -724.5734197 262.7403551
-291.3262791 -663.3902619 256.2872745
-266.4723293 -763.1036494 270.3802822
-264.231819 -728.3563737 264.2980073
-267.8909455 -719.6491123 263.4846884
-264.2462463 -695.0752144 253.5751283
-264.9969578 -663.2908415 253.7100417
-275.1172328 -712.7333021 257.5703882
-254.984349 -707.3700123 251.8070159
-274.1588353 -757.6034918 269.9976438
-248.7799175 -728.8436338 261.8331407
-258.8292293 -732.5742512 263.588369
-291.9995385 -666.5132694 256.1930791
-290.7965029 -693.8000007 256.6552494
-259.815069 -750.3011313 271.7543709
-261.4538563 -693.2536426 250.7545908
-247.3225001 -695.4447443 250.3599591
-252.8588271 -701.0188332 252.44301
-273.9763413 -714.6157812 260.7801909
-290.4936917 -652.2356227 256.7369274
-286.7389154 -690.4687118 255.940712
-266.4307849 -739.418315 265.5626585
-248.7641373 -698.4998792 250.5806259
-260.1667336 -665.792218 253.5099166
-281.6752816 -668.7265451 233.7646635
-264.3655528 -755.1666179 268.9775427
-297.4623932 -670.3863703 257.3313806
-265.2539019 -713.4556955 250.0141096
-280.7333573 -669.6328449 253.3439889
-268.3110984 -666.7288041 255.3451599
-262.0906286 -669.2483993 254.7925964
-288.5151269 -683.5686136 256.1701625
-264.0196792 -708.7182797 255.5783465
-271.3556158 -659.7752946 253.3261137
-266.3454323 -728.8695195 264.3089575
-265.4189225 -702.5232633 255.8705322
-261.2425001 -732.2593438 263.5796903
-260.8984916 -667.8804853 254.6999321
-291.6094635 -648.752936 257.079495
-266.6139274 -702.3824266 258.7003423
-255.5327775 -721.8369452 262.7604312
-258.1719269 -745.5317171 262.4714765
-258.0963361 -670.2236728 254.1119801
-257.2366523 -688.3401691 254.1720761
-263.8910549 -675.4109072 254.9348189
-262.3855366 -723.659955 263.6463419
-288.2579743 -695.9601046 249.9732035
-247.3610567 -693.802992 250.9771476
-288.7009684 -673.9261758 257.1258976
-255.7919064 -664.8327147 252.9978329
-250.4691693 -663.6459703 252.5792912
-248.4245798 -723.8931539 261.9003158
-260.4555409 -665.2163781 253.552736
-265.6463397 -646.4718555 254.2511418
-288.9354199 -665.3369642 257.3168918
-257.6939378 -681.1643697 253.0126274
-264.4629752 -647.6731626 254.1346251
-292.5043722 -671.3992926 256.4421797
-268.5090824 -708.395714 237.436069
-294.8588505 -683.078619 256.7590998
-273.780724 -761.1683987 270.1532957
-252.6082371 -695.3452958 251.5220793
-291.2112714 -647.9309354 257.253639
-271.7007925 -658.8011653 252.5359977
-265.6197228 -695.7136599 255.3378173
-262.4633408 -662.2308977 253.1637671
-256.2150791 -731.2152245 262.6792322
-270.2285048 -743.4912866 263.8788995
-251.0155854 -734.5996578 262.2686002
-289.179924 -701.7750304 247.3225536
-298.7533014 -667.1548765 257.3111111
-296.2865386 -656.5981101 257.2168266
-246.9928798 -718.3710633 260.2134183
-269.5251577 -739.6496226 265.4074041
-261.803516 -740.8064077 263.0659073
-262.3434601 -682.9992767 253.6111939
-256.7530319 -715.4255702 251.2990529
-264.9193424 -701.728521 256.3124007
-262.7584637 -691.8979008 255.5641444
-265.2243498 -740.5385283 265.5685339
-269.8000553 -652.7792573 253.9942742
-258.5303598 -728.6882047 262.8512463
-252.8571632 -698.2098432 252.412202
-287.6059314 -642.9432322 252.8285562
-252.4932483 -698.1834024 251.8342916
-257.1021812 -680.6208325 252.9627682
-241.4035684 -717.6851421 260.8020136
-251.0039409 -692.5423986 250.9501234
-269.0064534 -695.340072 259.4790835
-273.225467 -764.4885479 269.4595817
-282.1053542 -693.3761905 254.474313
-259.5752629 -658.9968788 253.4134307
-276.1957929 -683.688034 255.0931171
-283.5045569 -691.0982374 258.8476513
-260.4505839 -743.3250036 264.1162447
-259.8983689 -716.0743591 254.6405129
-288.8638342 -697.7187443 254.7552147
-249.6365027 -728.2782014 261.915938
-270.9495064 -695.2641505 259.255121
-286.9094439 -653.8278637 256.2961709
-251.6506103 -664.4407155 252.6719921
-268.0310063 -695.0005622 258.2207874
-255.8504017 -660.8328059 252.8139762
-265.0234392 -685.4531705 253.8236184
-257.5485294 -675.5455259 253.3000744
-271.5389334 -731.2991679 264.9449688
-269.9619703 -643.7240898 254.9995006
-277.7496458 -675.4091689 252.3619839
-246.163255 -705.3138913 250.4093322
-288.7026682 -647.6962507 256.5333778
-261.7885158 -683.579275 253.4853578
-256.0997918 -670.2135902 253.058394
-264.6386636 -678.9713158 253.9569744
-272.5344597 -760.9093195 269.6015554
-257.0945238 -727.8814901 262.6849274
-267.2933726 -644.7107961 254.7189108
-277.563388 -678.7981463 252.0602306
-283.4307857 -678.6506758 256.3073579
-251.2549465 -737.6635816 263.8646721
-261.5121737 -723.1266684 263.5788527
-277.2153787 -692.4478258 254.9426655
-268.9584978 -663.8346086 255.2562423
-271.806547 -740.4609502 265.7418913
-272.017835 -653.302604 254.602454
-269.0098588 -699.830548 259.4896001
-249.3175247 -693.9879747 250.6432576
-251.7431166 -657.1155844 253.0940176
-257.2708038 -676.1181313 253.2395279
-284.5506233 -653.3385095 255.9456696
-266.3701496 -727.4804376 264.2433802
-271.153842 -655.7973982 255.8589474
-250.2300364 -670.4378433 252.5090101
-266.3366887 -652.4241075 254.1205887
-286.4365074 -660.5815363 257.2846966
-286.3099489 -706.1271509 251.4488794
-256.4997945 -730.1051846 262.6991404
-271.2450134 -726.2787833 264.21276
-272.6605004 -755.4026774 267.9710893
-274.9649163 -656.4194398 255.675136
-269.7277708 -691.8810731 255.0713948
-280.4849643 -656.514313 256.5874983
-268.533784 -724.1052572 264.1321057
-269.9574866 -690.972956 258.0118455
-261.945771 -693.8788078 251.7612057
-258.8438705 -681.6956827 253.1885689
-256.3877969 -748.8279422 260.3385906
-273.6811956 -744.6240449 266.9997234
-269.4717934 -708.867623 235.9235579
-256.6600607 -689.6462253 252.6684547
-267.6889311 -699.796392 254.1663534
-295.0791779 -685.6637597 256.9512648
-293.6546392 -676.8119671 256.6513694
-297.5767137 -660.8496283 257.1487163
-262.8118894 -694.953834 239.6726838
-279.3361705 -665.8390456 246.7369139
-258.53894 -727.8579345 262.8228546
-268.4758658 -698.4305559 259.3002764
-264.8318513 -719.9912846 263.5386338
-255.6499945 -710.9883951 251.7008211
-257.068295 -679.2179618 253.0302777
-285.852457 -660.0266915 257.1886413
-275.3588312 -643.7491578 255.4829119
-263.179855 -698.7602874 253.247753
-294.2332761 -672.7801212 256.7798318
-257.335615 -706.2185199 252.6738677
-267.9578996 -685.6484471 254.1565345
-303.6752894 -673.5240789 256.9882548
-284.6955809 -710.9028746 254.3033799
-261.3033964 -672.5198739 253.0948689
-249.3661242 -730.2120697 261.87737
-267.980043 -745.2112214 266.2048283
-277.3214916 -701.7736396 258.8243345
-291.7306255 -660.5343234 256.7663662
-269.6705025 -671.4086797 254.4055715
-259.4196029 -681.3954358 253.2693787
-302.6701753 -666.4434768 257.7966182
-273.2894475 -680.2258057 253.2502877
-272.4981678 -645.8574478 254.907001
-261.4455103 -679.6364398 253.5318524
-251.4361153 -711.3444751 250.8988888
-280.0037188 -677.3714214 256.2855811
-266.5538793 -702.9955981 259.5263339
-280.9254049 -670.65703 252.2397971
-257.2808239 -745.2741384 263.1417112
-251.405986 -731.0059153 262.0114108
-281.9011887 -683.7238104 254.8878164
-270.8725172 -740.7232017 264.4513063
-247.0311329 -688.0147824 255.3674262
-262.0984361 -661.6949559 253.2909948
-265.8906393 -745.4940842 265.4623139
-268.8790908 -737.9683849 264.1372225
-277.8355096 -656.2393903 255.5281037
-257.5887712 -665.8864843 253.1014154
-265.2587739 -655.8699667 253.7731925
-270.8704101 -707.3030035 253.9802065
-257.2438752 -738.6453976 262.4604611
-253.0440682 -729.0532386 262.3494777
-242.6485119 -720.7080028 261.4419011
-250.7502693 -664.770646 252.647663
-274.733325 -681.5173442 255.5758149
-263.5611856 -741.10272 265.2392822
-271.0145789 -708.696059 253.6604444
-264.3409675 -739.9821313 264.8330611
-248.3619965 -731.9124616 262.8737939
-267.9116003 -723.0086487 264.157119
-257.1649351 -721.2636681 263.1513724
-249.3138585 -693.7070741 250.6485689
-278.331701 -663.1633963 258.5824731
-285.5773121 -681.2597467 257.7501051
-296.6952693 -679.0017022 256.9079833
-283.4499648 -690.2590077 258.9652867
-247.8726489 -691.8874079 251.9084911
-262.0496769 -701.0290299 253.0294364
-278.6753513 -681.7189116 256.4773319
-288.9307838 -698.9829571 252.5810536
-278.6192457 -656.2388385 255.8694452
-244.8649982 -706.7233538 249.9116028
-276.6624814 -709.0228021 262.3009883
-245.6305047 -732.6426587 266.5915383
-261.8273713 -696.7901417 252.7903232
-260.6325918 -735.8461694 262.9451192
-259.5853223 -659.279292 253.3933308
-263.1388984 -735.3025497 264.7839088
-287.1065602 -704.0623473 255.1496408
-261.486135 -728.1129117 263.6838806
-257.7000685 -715.1531186 251.9355324
-284.239328 -653.0668371 255.9382316
-240.9604766 -708.0853091 252.1542639
-255.402903 -728.181666 262.4314532
-276.960379 -708.7453894 262.3226821
-248.6582266 -692.8962799 250.7563015
-288.1721351 -645.4742245 256.9942425
-246.3538827 -696.3339197 250.5207067
-293.9345866 -677.9538185 256.7237277
-281.4632083 -659.7931473 253.099065
-267.3945517 -725.7874268 263.9740852
-252.4812623 -719.6652235 262.1336122
-272.372784 -643.3125551 255.1766288
-251.4266379 -720.8166562 262.5337181
-297.5274633 -657.4021641 257.2746109
-258.8334291 -752.4785397 272.6537275
-256.0987371 -742.5195615 262.3709248
-284.6110282 -665.3206291 255.1339361
-283.2408588 -665.8489647 256.7330318
-252.6440573 -674.5743799 252.6163106
-248.7902065 -695.9627517 250.4803779
-259.5345105 -753.8391405 273.1070324
-289.085971 -702.0138398 250.906277
-248.4638595 -726.6457637 261.8432057
-265.1772576 -733.0241703 263.5680818
-269.6943506 -673.7389938 255.0483005
-262.1671619 -691.6361363 255.5167232
-287.5778677 -664.486907 256.8451264
-263.3680525 -661.4095531 253.9063942
-275.0486084 -713.6909552 254.3101382
-269.0651767 -681.1476615 255.1046354
-284.4994225 -710.0382271 254.0424366
-253.8158262 -692.5383159 252.2275701
-258.3325899 -746.6738419 265.572761
-279.5757621 -653.5194233 255.1537216
-264.4250129 -721.6826382 263.8050028
-249.5042698 -715.8538731 250.4970871
-279.1735171 -679.2840919 251.9458938
-275.5909064 -696.7661067 259.1885005
-263.3739757 -655.1340358 253.8525916
-280.9548218 -658.134571 253.5095003
-286.6168549 -648.936782 256.258613
-251.4893534 -670.3698724 252.4129297
-259.1491516 -650.2092183 253.610879
-256.1014673 -665.3841556 252.995031
-243.9555229 -726.2211802 262.6711789
-268.2732491 -696.7418443 259.0695987
-287.6251104 -673.0314698 253.3772821
-267.7838658 -740.2214298 265.2413956
-261.000732 -673.3106957 252.3728803
-257.7166138 -688.6277997 254.4797106
-264.0842947 -707.5195734 244.7964135
-253.2160031 -690.5325235 251.4609159
-262.621779 -682.9932138 253.6761813
-241.4365728 -720.3997525 260.0639934
-269.2932816 -667.5307948 255.2395711
-290.3896017 -679.2043684 256.2075277
-255.972018 -713.1852992 250.9646172
-269.991572 -724.080398 264.2713921
-286.8063375 -659.0361407 256.500552
-298.7446703 -678.9496845 257.2681441
-262.0705578 -735.8275707 263.1015378
-246.9809506 -709.7408288 249.9457486
-248.7966908 -687.8114003 254.0048553
-276.8491501 -665.4756082 250.1862106
-268.9059878 -733.8098078 264.0494947
-256.9045637 -748.3414989 266.1267399
-252.2211463 -665.2751676 252.7792275
-265.632414 -722.4882403 263.8203097
-237.6449207 -702.4067996 257.3418789
-259.2301137 -669.9053964 254.3195278
-271.4277725 -707.2947198 254.1133803
-287.1717338 -670.8569499 254.3560742
-293.9589982 -675.366618 256.6815871
-295.6270991 -669.8827393 257.1898315
-289.157126 -700.6120691 251.423357
-257.3387128 -651.1574397 253.5359654
-251.3628904 -665.8745662 252.657377
-262.0545094 -664.4289855 254.8347156
-243.1961928 -722.6257046 261.5884619
-270.1182428 -663.0241597 256.1352702
-251.875273 -723.2775284 262.2135869
-278.3382263 -700.1716628 256.5796703
-283.8340822 -655.6214724 255.4533178
-257.8383495 -746.369735 263.2444496
-271.422835 -747.4261178 269.3010526
-291.9823473 -696.2705419 256.1341113
-251.7635913 -671.4947368 252.4970805
-290.7895506 -664.2559347 256.080235
-241.1699599 -717.4060462 260.6446277
-295.3642902 -653.7500751 257.1639098
-267.3006881 -729.1245534 264.2036202
-270.2798172 -748.543457 269.8281002
-262.0589667 -718.6482733 262.9663927
-251.0362699 -696.4782358 250.9257886
-287.7312281 -706.3991898 256.492567
-260.766599 -690.8224991 255.2178699
-257.9199197 -702.9299237 254.8797825
-271.6503961 -732.6985623 265.3793982
-285.639376 -704.1726783 256.2757841
-294.5250593 -662.706692 256.8764241
-300.3912428 -660.2193235 257.9269297
-252.1524296 -684.1679701 252.4479487
-259.3184074 -661.2743605 253.315196
-282.9267471 -712.9235757 254.0842197
-264.7547423 -681.203486 253.6970118
-250.2084231 -696.2103912 250.7204758
-277.1933238 -699.7215416 257.7280416
-281.9712802 -682.1126412 256.0824126
-271.1494309 -683.8458697 254.5885124
-244.7431032 -692.3160755 255.8719837
-261.787442 -734.1721999 263.0473806
-292.7189025 -681.1474093 256.612539
-264.5349099 -726.9408088 263.601328
-261.3623239 -688.9925746 253.8145785
-252.1456878 -690.5449997 251.1088272
-259.3684154 -666.0863297 253.227862
-258.0325084 -744.9866225 262.7910867
-271.5526141 -674.7253103 254.3582989
-271.8252265 -681.6699259 255.8548945
-281.4502302 -645.7283935 255.8596026
-289.0107776 -701.2100426 251.7368309
-287.0545548 -673.0514811 253.2584581
-265.5589354 -653.9450365 254.4949544
-301.7231281 -671.8924418 257.0766595
-275.7503775 -650.3169259 255.3192406
-280.070432 -665.1608667 254.1078541
-302.2329739 -663.8912541 258.0465859
-260.8742136 -683.9009678 253.4791572
-251.8812162 -694.4899486 251.0608099
-269.5287591 -646.2830356 254.5906005
-280.5750726 -658.6666176 252.9668824
-302.6047951 -671.2339306 256.5978958
-252.6303415 -674.0114161 252.640463
-253.6587958 -744.2370503 264.5961292
-268.9983206 -660.3134146 254.4399115
-289.5728751 -654.2980741 256.6688669
-288.5794303 -696.7558082 249.2800096
-263.7105254 -678.3109722 252.5440734
-275.4872493 -650.8938765 255.2128585
-266.1596568 -756.4620004 269.6750369
-273.8757909 -651.1929498 254.6231924
-258.7029777 -744.4252427 262.6244706
-259.9735226 -687.0383845 253.4592353
-258.3301027 -663.6217615 253.497856
-278.2250172 -704.2782499 258.8638953
-258.6543203 -667.2919082 253.487401
-263.8507571 -686.6217758 253.7036013
-270.0058116 -749.3698623 269.7719782
-299.9020436 -667.4171238 257.5705244
-241.4928842 -695.5459865 256.5723154
-269.971957 -700.3588797 259.406566
-292.119221 -686.6012497 256.5336649
-268.482758 -658.9708651 254.9057162
-278.6231854 -642.4494778 255.87671
-270.4862495 -722.6920516 264.5180081
-256.1357591 -749.1665009 265.8347694
-256.1707506 -685.2493095 253.7755192
-264.8445756 -695.0987902 254.2950979
-268.9622742 -650.0306579 254.4842774
-289.0718393 -673.6119543 257.008125
-264.3927588 -748.5530787 264.75728
-300.9846443 -661.3538951 258.0111189
-285.2956603 -657.0881603 256.3667664
-272.0350575 -734.097484 265.8814992
-289.9652363 -659.4498026 256.4993087
-295.6835751 -684.7866837 257.0133598
-249.8974556 -718.8669119 261.1482809
-267.0186049 -700.1144321 258.4724518
-301.2020751 -672.5325523 257.4841736
-266.0542317 -703.3318332 255.7987433
-264.8281451 -650.4976388 254.0225929
-286.4862534 -663.0658946 253.8057696
-301.4013912 -675.7119523 257.7068016
-241.613199 -719.616574 261.0566697
-295.7205516 -664.966371 257.0187699
-257.0733678 -679.7824719 253.0246146
-280.6529203 -680.4095095 255.5524589
-284.0811099 -711.4851558 254.2821247
-274.8772344 -745.1753995 265.7324103
-273.5127564 -715.399773 254.3180526
-269.312077 -665.8901064 255.884089
-274.3573377 -684.8318352 254.3505997
-276.5105562 -710.5160384 253.8023921
-244.3941319 -708.6810219 249.6190089
-270.7799761 -686.6662839 257.5223043
-268.9666971 -734.6372062 263.9209419
-256.6594446 -666.5058956 253.134823
-268.9517448 -650.6077315 254.510885
-274.6827219 -682.6688843 255.695587
-265.6402632 -724.9849113 263.8212659
-255.9964673 -657.1701409 253.1539492
-271.3456251 -738.2614303 266.0810003
-288.8698592 -675.0291235 256.7667992
-246.5255844 -697.1412232 250.1151732
-254.734761 -653.8312411 253.2014085
-244.9949914 -704.4981788 250.2895173
-285.5672008 -670.2113176 255.7655574
-261.7844282 -685.840434 253.509776
-252.8568209 -700.1772837 252.4376705
-267.6306475 -741.0485154 264.9171568
-270.7610746 -752.9397899 266.1078678
-255.2812929 -719.043526 261.892651
-263.4787194 -651.1815474 254.2887473
-291.7821867 -655.6206959 256.6779046
-268.9946695 -690.9762249 253.9489575
-252.3592037 -704.1557052 252.9621152
-282.7896961 -671.8369049 256.3506128
-262.976789 -675.9474842 254.2102226
-264.5583025 -748.3076232 269.1579126
-273.5905803 -752.373963 269.8845833
-276.6788294 -754.0001788 270.4311032
-269.5380762 -728.8221283 264.630386
-262.0805735 -670.3876918 254.8268651
-288.4151461 -708.041818 255.7142108
-300.3156539 -664.7809845 257.3923487
-291.6924794 -671.6965819 256.1559582
-265.7314194 -680.5833353 253.5696246
-274.4362717 -686.8675798 254.8838829
-263.7090807 -729.4671331 264.1218598
-294.2137598 -661.5684771 256.8686866
-256.5283379 -672.218479 253.5064508
-268.0909872 -719.3626662 263.0445446
-253.037088 -723.2552216 262.2984005
-250.2056019 -729.374368 262.0015831
-285.5859344 -708.9362357 250.3234647
-270.894948 -652.754934 254.3226489
-253.0796344 -727.9453832 262.2522889
-253.4500125 -693.9722399 252.3933341
-289.6173528 -708.2617432 255.1610753
-276.2557337 -663.7812275 252.8607783
-261.6964331 -714.0011536 253.2857143
-254.5320021 -727.92015 262.3605594
-259.1392002 -747.7673365 265.7942948
-263.6179843 -688.5970427 253.5490086
-290.7205853 -662.2634511 256.2336602
-264.735269 -678.7271048 254.4359871
-272.1049983 -705.2597875 258.748754
-257.2230617 -732.0575535 263.8241704
-262.6726497 -705.7001087 251.6065296
-274.1837662 -704.4115867 258.9457678
-256.7589274 -684.3181218 253.0924144
-256.8138734 -704.8280017 252.4878369
-259.7891471 -735.579325 262.8061309
-283.0583951 -692.4820445 254.4326732
-272.2549306 -673.5135893 256.9201261
-271.0628875 -703.6628079 259.0285956
-271.6468264 -724.3462407 264.6678125
-255.7706916 -650.9766542 253.6211563
-252.0690203 -676.5717343 252.5592982
-259.9400092 -719.5234266 262.9694032
-285.8645083 -693.0949305 256.4536753
-266.7531546 -700.583975 256.9947243
-245.8525314 -691.4017732 255.3384654
-266.0212563 -743.8312105 265.1469824
-268.494113 -701.8018381 259.2917156
-284.5703275 -684.728854 257.8927053
-274.4962605 -698.5827264 260.2672782
-244.0402026 -710.9334592 249.775554
-260.7355535 -728.1138728 263.329019
-270.6558619 -657.1300869 254.8782419
-264.5808014 -743.2711841 263.6314766
-252.6337382 -672.874979 252.6130475
-257.165168 -672.2534087 254.1635822
-255.009998 -736.4766199 262.7474346
-252.6535522 -742.6419203 264.1324292
-258.614926 -714.5651546 251.918577
-277.810494 -692.4308168 255.0006881
-288.7366979 -689.285712 256.3616533
-276.1120371 -658.0254602 255.2175376
-265.0324016 -686.3007279 253.8093654
-251.6332155 -712.436726 250.4418111
-267.5126271 -738.5484407 264.4841503
-280.6901347 -685.8219564 255.4932721
-274.2506072 -697.7454823 260.1351987
-263.1617256 -695.3811579 253.2661117
-273.2159812 -642.4324669 255.3887828
-259.7153818 -714.9063902 253.63102
-292.7675984 -684.0011702 256.5067917
-282.0848096 -668.4027362 236.4171488
-285.4717955 -685.2706763 257.975648
-281.6850359 -668.5121341 242.9437235
-302.1078706 -667.605957 257.6281681
-285.4072204 -653.0261014 256.1362238
-290.7000935 -673.1823518 256.242293
-262.4690659 -652.6083483 253.7876456
-262.933346 -695.547246 240.1081933
-264.221037 -659.0183402 253.3450951
-258.1549815 -722.0626505 262.9573886
-261.6351738 -671.5029837 254.4445688
-254.7506533 -723.2252367 262.4986382
-260.4248772 -701.5538979 251.8249432
-251.2988623 -696.1945348 251.02056
-283.0089487 -649.3893803 255.8884314
-278.0432482 -687.8873338 255.1545083
-255.6161573 -662.3304119 253.3840419
-292.5260745 -666.7970848 256.4138188
-261.0886856 -662.9031563 253.4920344
-270.1069718 -708.4315753 253.6194833
-245.8788565 -705.0395622 250.3616105
-272.3477806 -680.3331238 253.9721147
-272.0171235 -706.7164145 254.1715557
-263.6397359 -677.3245839 254.1088931
-284.2778802 -653.3423265 255.8547495
-254.013888 -704.3162034 251.9075762
-267.2718361 -699.2716931 258.5867043
-290.0470525 -705.754532 256.2445077
-263.9463524 -654.5432356 253.9517706
-259.8334089 -688.8254232 254.5182908
-259.5311207 -741.6587788 262.7675674
-274.3218668 -659.2097087 252.2646048
-257.9853657 -716.0613323 253.4210655
-263.9417417 -675.1134699 254.8156012
-263.1672542 -696.7909791 253.2655808
-297.217509 -657.4164759 257.2565618
-274.5901869 -749.07657 273.5748898
-264.7228574 -739.1596727 265.3300243
-269.0733538 -693.1995903 257.2429281
-265.9691492 -682.5712448 253.7423674
-279.6629463 -647.2484113 255.649399
-283.0987214 -672.6766648 256.3535511
-269.2773458 -758.9907925 269.4482024
-287.6778785 -690.7203332 255.9452276
-252.5637877 -734.2977284 262.1471692
-269.6144815 -691.2727126 258.0915246
-277.5532873 -664.933782 253.459683
-256.0170799 -745.2981877 263.9828295
-262.0785605 -697.5877009 244.3095678
-291.6837964 -665.0901009 256.1959623
-292.6684328 -663.9464273 256.7832026
-254.2705134 -691.9852005 252.5845423
-263.3489738 -674.0034829 254.7597741
-274.0947612 -650.9205995 254.8317039
-288.8270106 -681.8416428 256.1772862
-250.1341756 -690.598745 250.8298608
-285.1192294 -653.612029 256.0785341
-246.2511508 -707.2600953 250.2245425
-261.2088149 -693.1967061 249.892819
-275.7441839 -651.4671068 255.3339501
-252.8517891 -699.3362193 252.4420955
-246.7159037 -706.7053766 250.5558004
-257.2018335 -704.2917189 253.005818
-261.4572676 -715.158824 253.8507128
-279.5130508 -653.2519885 255.2900893
-250.8344506 -669.5624407 252.5114365
-269.7036087 -690.1277164 257.8885316
-256.6224703 -674.2435351 254.0224302
-263.9143678 -728.6405227 264.3366848
-268.8028771 -660.2907985 254.1760653
-268.0704804 -687.9499024 254.6199236
-259.0192088 -690.1948389 253.5823854
-288.0009564 -653.8079024 256.655047
-274.9197475 -713.2880546 257.3283985
-250.4953204 -734.8971882 262.7973334
-271.9844766 -699.4694455 259.7043357
-294.4138574 -668.7782127 257.0799011
-277.0990591 -679.0688895 251.7036601
-274.7507964 -687.707071 254.8786497
-261.7600106 -693.2981865 251.4732762
-266.6196038 -663.3185155 252.1240629
-250.7155871 -689.7356296 250.8809942
-272.1167714 -653.558214 254.384067
-267.8590896 -654.3406693 254.177383
-249.9669825 -675.8191881 252.492538
-259.3794111 -746.6682117 265.9206939
-274.3346858 -701.9327514 259.9435428
-277.8815033 -703.860918 260.966856
-280.4805334 -643.2008696 255.9224267
-271.418062 -728.8114665 265.1928616
-256.4874714 -728.9995241 262.7115147
-261.2359528 -703.1170182 254.2506357
-279.5385073 -699.5709866 260.7171114
-260.8719917 -691.5233666 253.5401278
-283.1897737 -661.1177806 255.4774435
-272.4048656 -753.4810265 269.8368021
-258.9131813 -653.0564305 253.4673887
-278.0345518 -658.0259177 253.7219679
-275.5580118 -663.5485963 253.0235625
-257.8212601 -743.330547 262.5621638
-271.842878 -754.8535672 267.762271
-264.7173569 -660.6142626 255.0488157
-281.1372273 -667.0679914 245.5420585
-273.7960678 -700.5362459 259.7754553
-262.1723689 -653.7632992 253.7675722
-241.6031184 -717.395514 260.2806017
-243.5096787 -721.789216 261.5271711
-295.1727412 -672.4518757 256.8040083
-268.7370906 -698.9896491 259.4021876
-253.9948223 -709.6109862 251.2892788
-280.958414 -666.8955832 243.8406775
-292.1400534 -668.8308999 256.5387338
-256.573327 -682.3212538 252.7859202
-249.0146957 -712.2127413 250.1760657
-254.646671 -736.4858727 262.8952798
-280.9220243 -642.3661884 256.3363116
-258.2849841 -669.3164935 253.6599951
-281.8455926 -672.3264904 255.0173633
-260.006521 -722.0492448 263.55727
-253.9804262 -663.4978017 252.9250192
-300.2508677 -677.4657778 257.4494224
-257.104688 -711.5580049 252.5842831
-277.1194761 -654.6732644 256.4265832
-293.09911 -674.5268156 256.4984096
-267.3214704 -729.6778442 264.1632305
-237.0830131 -704.8939683 257.3734499
-246.0698136 -689.9993608 255.544267
-283.8632466 -677.5600339 254.019643
-260.3764402 -652.9940672 253.640612
-276.2937023 -664.4144078 253.4610539
-267.6010143 -696.1660921 258.515114
-254.7912345 -712.6543599 250.8796711
-262.6879255 -755.7183756 269.3778388
-269.4833304 -733.8031112 264.117528
-280.4120812 -698.7002149 260.830823
-251.2198062 -657.1176574 252.8824612
-256.9220659 -672.2508757 254.0172852
-290.8099326 -675.4493603 256.0059104
-264.7673665 -707.2655551 255.2550531
-278.0155293 -699.3384451 256.6100827
-245.7878507 -708.0952394 249.8932874
-276.8722273 -688.4894321 254.9993442
-266.7922825 -686.529909 254.0078082
-262.071944 -697.8233976 243.6031639
-253.5036857 -669.7331449 252.6878288
-294.2099866 -661.857852 256.875379
-269.1669607 -683.5487832 253.4872334
-254.9573019 -652.4191062 253.3849463
-252.8039197 -712.970713 250.5500155
-281.7082064 -667.8511278 244.9834494
-247.4162165 -716.7615178 250.4334211
-302.1306181 -672.1443727 256.8953526
-260.5288261 -649.3199193 253.9761811
-253.9560249 -730.6933654 262.3438056
-271.9183008 -755.6807038 267.6095079
-262.684253 -660.8151614 253.3515154
-268.2103104 -644.3711651 254.7476869
-261.1301326 -712.1110448 254.585737
-284.4290687 -686.0151158 256.1855031
-239.2913491 -714.9400278 260.1211233
-271.6901104 -731.5856042 265.2849253
-271.6400429 -724.6245799 264.6846105
-274.131981 -716.7720428 252.9727712
-264.5074963 -650.5183339 254.0476523
-252.3410233 -702.65983 251.5268968
-262.2457883 -715.8125011 261.825756
-260.8342028 -700.8456356 241.4893975
-258.0714011 -657.6450065 253.3263044
-283.5554428 -655.3397529 255.3757232
-291.9519082 -665.3758496 256.2969987
-267.2618418 -668.1346325 252.0970135
-263.5215032 -720.309979 263.7696809
-271.9971454 -741.003911 265.3245753
-269.3561067 -654.2754957 254.3047709
-285.500541 -657.6793186 256.6008007
-274.8753552 -683.185805 255.2606263
-297.2745479 -677.8394156 257.0273346
-270.3517218 -721.3153559 264.8028351
-262.1376231 -697.2388735 243.4417988
-276.1039449 -751.2850787 270.3690545
-261.5773201 -720.3426607 263.3934064
-275.7432755 -693.6208595 254.7679659
-295.728805 -659.4893591 257.0309299
-263.6717853 -732.5147912 264.2346159
-276.1273373 -663.5328909 253.1452305
-282.5537356 -659.6351072 254.8082498
-271.5592363 -752.9297383 269.0261896
-265.6145993 -692.8993564 255.3402439
-264.0975082 -748.30649 268.8380892
-286.2132919 -676.0531112 254.3613954
-253.8895086 -691.9585775 252.0452467
-283.5651969 -710.7982276 251.9954945
-261.2319933 -716.5569791 253.6748147
-268.957092 -735.7474167 263.9509975
-268.6344469 -694.1354777 258.2374588
-271.8074114 -673.5264708 253.7918101
-255.5170777 -671.6501837 253.003994
-261.9309075 -697.0837605 241.0330539
-257.7845474 -674.7003642 253.4530671
-285.5597784 -693.6728514 256.4354617
-273.0876913 -660.4513035 255.0202682
-277.7072651 -717.1381132 249.2066072
-282.7223048 -714.0856366 254.5302684
-252.0505989 -670.0695755 252.5214408
-265.875204 -645.6199936 254.4277076
-248.2377551 -696.5359161 250.3591358
-263.9406417 -745.2137676 263.7334148
-259.9847717 -727.2834522 262.9597628
-257.7157702 -652.2595711 253.3863357
-251.1359778 -732.6622737 261.9633412
-292.1389808 -680.3028895 256.5065115
-288.7161787 -649.7089274 256.4919039
-269.4152745 -724.3676113 264.2016386
-281.9874262 -654.275433 255.3697067
-291.9916206 -674.2653389 256.179953
-256.8417286 -713.1670775 251.0678069
-269.6631031 -643.7386177 254.9723757
-291.7529523 -689.7666989 256.6352864
-246.7594622 -728.3514342 262.3840771
-294.0695981 -650.9405491 257.2293908
-292.4529056 -686.0136907 256.496837
-283.8576557 -645.3286355 256.1002255
-275.4078022 -646.3219518 255.3796428
-263.1215628 -678.043685 252.4760805
-253.6946099 -662.9391854 252.8710035
-272.4527863 -760.3587663 269.7771181
-301.0902489 -677.4676258 257.6935474
-277.838855 -682.3034285 256.2667646
-257.9381464 -676.0766967 253.1109429
-296.8811654 -655.9986446 257.3076442
-279.2848999 -704.9722385 261.2748839
-279.2514059 -679.8990611 252.4613425
-243.4373599 -700.9057234 250.3451121
-248.9442155 -662.0281177 252.5693256
-289.5391247 -703.4759997 255.9873371
-245.5773222 -696.672504 250.9438983
-299.0409405 -666.2835934 257.3797838
-268.067254 -743.5391134 265.3211542
-274.2190819 -689.9869677 254.6994868
-287.7414836 -665.1538215 255.1477899
-295.3856453 -685.3679042 256.9730689
-278.2989417 -652.7338229 255.2033299
-262.8101859 -676.9254332 252.4803329
-275.3289875 -661.8666578 258.3451432
-263.9221159 -725.5666249 263.6049457
-265.7828632 -721.1112611 264.1519178
-256.8831725 -671.340561 253.3832295
-267.6399463 -694.8793924 256.3398836
-290.9636418 -678.6176534 256.327511
-290.0108865 -674.083538 256.3605623
-261.1766251 -725.6295489 263.6803947
-250.4587252 -694.8034588 250.8295906
-254.9984836 -699.2114271 251.669184
-268.1876089 -703.161609 258.5944616
-259.2126718 -754.6423966 266.3424231
-244.5117489 -702.2496358 249.9539438
-280.859987 -665.8017729 255.1147849
-297.9013084 -661.4085378 257.1325078
-282.9109873 -668.7334807 256.7709979
-268.9454534 -732.1393507 263.9444524
-252.6526668 -711.5937935 250.9020418
-267.8910359 -680.6163774 254.9636477
-261.4518148 -697.2693881 251.5177864
-272.374212 -657.6841742 253.112681
-257.8842984 -722.3425554 262.890061
-245.2247571 -711.7422725 249.8401578
-296.0143226 -657.4630953 257.1106738
-286.3147879 -662.5348425 254.1670917
-251.5823886 -691.6804951 251.0069115
-256.9436272 -691.2762382 252.019559
-273.0499112 -755.1297965 269.7623534
-283.4927898 -659.4651254 256.188254
-294.4743375 -687.1130535 256.8899504
-258.6533636 -657.906262 253.4030402
-280.4553575 -678.9420705 251.888326
-282.5830814 -677.4023227 254.7604078
-289.0554128 -643.8282085 253.773264
-269.6956893 -702.0642566 259.3582103
-298.1578694 -663.1419109 257.2519261
-287.0847621 -685.3696155 256.5387211
-246.6586432 -721.450605 261.8126091
-260.9901963 -720.0769187 263.3500625
-281.0694221 -667.0128831 244.994047
-275.0094388 -757.3262978 270.1243313
-290.765198 -650.2125608 256.8420828
-289.2852513 -709.4095758 255.1981923
-253.8730739 -688.2365328 251.3096654
-262.4785568 -693.7623599 254.0927362
-269.4573507 -663.0306402 253.4177665
-268.7391696 -700.6795238 259.4208216
-248.1481743 -714.7536152 250.1152776
-270.0569325 -712.1923779 258.4607777
-264.1627125 -685.7591581 253.6855368
-236.7278681 -709.6911381 258.2780378
-251.9340435 -664.4312889 252.7218788
-285.8929192 -683.8109174 257.7463109
-293.9437649 -676.8046089 256.7082886
-267.3951456 -658.5019564 255.2659857
-262.9644132 -725.8665624 263.7227669
-245.7998341 -724.7720934 261.7757439
-265.7604126 -667.130605 252.6936795
-252.7335459 -696.4973 251.9634512
-267.6140315 -672.8973944 251.3400555
-279.3517188 -676.8347376 256.3448538
-265.3812464 -725.5407572 263.7264324
-271.3857517 -688.8486082 256.868557
-283.5876681 -688.5279641 258.6677216
-252.1824715 -661.8860479 252.8360159
-287.4437938 -674.5533759 257.1205419
-251.5718433 -702.3833949 251.1865397
-270.2847542 -663.7025611 257.1592228
-252.6294092 -699.8913857 252.2537719
-273.5573541 -758.1554562 269.9923734
-276.995708 -653.1113993 255.3226752
-267.4326343 -749.3879273 269.4673866
-273.909824 -715.6101124 263.6566936
-252.7883183 -727.9501264 262.2336267
-293.8482931 -651.7953633 257.0244998
-292.9743849 -663.9310785 256.8025732
-265.821509 -701.977778 256.3412254
-261.444044 -683.0363265 253.5688781
-263.2673201 -686.639226 253.6335669
-254.0094824 -664.0583585 252.8651718
-280.9989874 -670.2040107 253.4489743
-243.5276351 -699.8071617 250.8359329
-282.4481433 -670.3692626 255.745824
-251.8694286 -698.4365369 251.1473016
-273.5349256 -688.6028001 254.8327929
-256.4767122 -726.2364692 262.7066497
-263.0525662 -679.5456825 253.3565688
-256.8023814 -749.9780351 265.6930181
-269.3633508 -742.391382 263.7737175
-281.7582757 -666.2678811 257.2373783
-258.9110043 -670.209224 254.3550724
-263.9283182 -653.9778958 253.9894448
-290.8367866 -660.8617969 256.6569971
-289.5539187 -651.7093538 256.7188611
-276.8648519 -705.5057242 255.0879766
-279.3447667 -672.5810473 256.3833546
-261.525333 -734.7267505 262.962985
-296.0771025 -676.1547999 256.8862683
-283.2977289 -646.4951336 255.9458648
-270.9253909 -661.5010059 255.6970389
-269.9210254 -690.6995481 258.0939059
-270.7962059 -688.6408247 257.4965415
-264.5077511 -710.4387907 261.460451
-272.1418442 -759.8094797 269.7920261
-268.2589985 -697.990268 252.8564837
-253.0650675 -682.5727136 253.8917698
-270.1698385 -696.1601701 259.6297769
-273.8672393 -752.6490049 269.943083
-256.878204 -711.5531074 252.3997378
-262.0821221 -730.6127824 264.4031347
-274.7778195 -656.6790528 255.3931849
-265.6156757 -684.5848897 253.870687
-285.2591026 -644.7136365 256.4727277
-249.5814174 -666.5176745 252.5540379
-267.8669197 -761.1904633 269.253867
-265.6284988 -705.1114501 256.787769
-266.7805529 -722.7474169 263.9680908
-270.8727995 -643.6748623 255.0497445
-285.2069177 -679.5187834 257.2087224
-251.920344 -727.1370694 262.1534823
-273.6176202 -760.0815653 269.8735998
-246.3846585 -689.7103618 255.4940869
-293.8731686 -686.8443133 256.8262285
-243.1350925 -704.8016541 249.6808624
-302.7374809 -670.1158152 256.9900342
-250.2266422 -697.6145447 250.6988144
-274.3395525 -699.4045945 259.9280213
-285.8754368 -645.2584348 256.5032875
-263.5652019 -705.4429596 252.3840111
-285.5741263 -692.8182935 256.4080038
-249.9386965 -674.4118313 252.5388498
-243.1879705 -708.435134 249.6129722
-276.4710647 -657.9918162 255.1110745
-256.0650277 -673.6931125 253.8937418
-295.9875825 -668.4182642 257.1067918
-267.5344505 -702.3513337 258.6920983
-277.2086576 -699.4364211 257.6942662
-267.6378199 -699.2940116 259.1358692
-265.7035125 -709.2136023 240.313283
-272.3937197 -758.1582293 269.8910311
-254.3039323 -695.0747951 252.5420289
-269.8687033 -707.3420547 254.1533765
-267.1656567 -730.7792301 263.8424244
-254.1353285 -654.7165961 253.1826542
-258.0691782 -735.600176 262.6059754
-288.154392 -657.5082249 256.3237092
-269.6306022 -668.0789876 255.1817607
-277.4876157 -673.7367531 255.6738068
-267.5075125 -720.8013894 264.3559985
-254.3030241 -738.132088 262.3172959
-252.2043144 -736.8187026 263.7175653
-295.0682486 -686.2385917 256.9724654
-297.2073929 -656.5575967 257.2889632
-281.7248138 -669.8753052 244.952562
-298.7526344 -677.7981559 257.2558685
-269.6333111 -661.7043118 254.4117312
-266.1655397 -663.3764836 252.4512858
-269.2452194 -689.8442059 254.0721473
-272.1156238 -751.8314355 269.7979888
-270.7502413 -698.9493136 259.7148249
-288.6868058 -700.5034729 253.7802988
-269.7946491 -721.6018378 264.692832
-266.5520428 -717.9805434 256.8743769
-265.0437062 -708.1642831 260.9205172
-282.2528673 -696.8568463 259.5501118
-262.4343211 -744.1348582 264.4048008
-263.089503 -755.447178 269.1518043
-246.5629638 -708.0900706 250.210087
-240.6461769 -713.4231264 257.4623994
-243.3976523 -719.8716167 261.7521008
-301.6830884 -666.4920491 257.8439655
-274.0417759 -701.940257 259.910644
-265.2358278 -705.1381609 252.7817737
-251.934487 -660.4611536 252.6773129
-257.0481749 -725.1215239 262.7643516
-249.623796 -675.2755218 252.580191
-248.2245937 -703.8994509 251.2532107
-272.620168 -656.2213413 255.3487898
-260.8507716 -683.3414187 253.5289937
-256.3684407 -650.0893027 253.6466374
-268.7720569 -715.8804501 254.619373
-290.0658653 -687.7965611 256.2115726
-257.1497895 -707.3368923 252.4302378
-302.4757323 -663.6064734 258.2032627
-262.6175376 -720.6120972 263.7759524
-264.7225121 -705.1424984 252.5578011
-271.1157033 -685.7987268 257.4548825
-284.4817552 -681.501723 256.745919
-268.2181631 -741.583018 264.2890966
-255.4257216 -741.9792587 262.5363844
-295.1840791 -677.3300163 256.7611708
-262.4250911 -688.0717578 253.4657054
-256.811074 -680.9128029 252.9303406
-280.3178623 -666.4261041 244.5667207
-252.5484661 -697.0470145 251.6879335
-276.8005346 -641.6943874 255.7628228
-290.9020546 -700.860096 255.7671141
-265.7460405 -751.3183047 269.2148578
-276.9051822 -707.4370574 254.3197524
-300.2646114 -674.8781747 257.4393041
-249.3356777 -695.6726381 250.6228936
-263.2440671 -709.2315553 259.4566923
-298.4465433 -678.6701674 257.2272318
-262.4046272 -672.9234407 254.8119866
-264.3974512 -707.3616465 251.8870505
-281.1917884 -650.9121296 255.7347852
-268.7067122 -699.557704 259.4756443
-254.4708616 -655.260766 253.1223709
-268.2928773 -707.2334413 256.3182801
-259.4611676 -669.0611199 254.4860944
-299.6563825 -676.9100211 257.3680481
