# .PCD v0.7 - Point Cloud Data file format
VERSION 0.7
FIELDS x y z
SIZE 4 4 4
TYPE F F F
COUNT 1 1 1
WIDTH 1269
HEIGHT 1
VIEWPOINT 0 0 0 1 0 0 0
POINTS 1269
DATA ascii
-260,4121888 -714,0777811 254,1406997
-256,7741394 -746,6697825 264,3238309
-280,2831318 -648,9410447 255,6643883
-257,5436971 -741,4007408 262,4893712
-280,9534106 -680,0507851 254,8948552
-282,636315 -655,7518166 256,0026914
-272,2402519 -695,2119958 259,1196021
-255,1993133 -665,1424837 252,9563062
-251,5724165 -689,4309211 251,0066738
-258,15566 -661,6046201 253,1681746
-296,362353 -665,508929 257,0022287
-244,9610535 -711,1842842 249,7364959
-261,4158946 -693,3822406 248,6938965
-251,9718325 -701,8387335 251,6707301
-260,8721503 -667,0373758 254,755445
-277,4986106 -713,7549048 259,8967492
-256,542757 -744,1721375 262,7459466
-247,8651231 -698,2478088 250,5549889
-275,1607577 -712,1410343 251,3133821
-273,7302237 -648,3714907 254,9422433
-250,545963 -676,3596298 252,5651016
-290,6695431 -679,1991972 256,281734
-254,9882035 -707,6497246 251,8011135
-278,5290451 -693,2922482 255,4715945
-279,8154027 -655,7050388 256,6871158
-262,5385359 -656,5832201 253,6565205
-254,7047227 -746,1524372 264,9677545
-261,1487316 -743,6129805 265,2792097
-265,384404 -748,8514182 269,3314181
-270,3873936 -728,5345583 264,7713291
-286,7644898 -671,9116138 253,2075815
-263,4985863 -656,5153246 253,5679553
-280,4421816 -696,9114073 259,4243846
-253,911206 -703,4891693 252,1338769
-263,9152328 -751,0568956 269,2781148
-273,422395 -681,5882527 255,736512
-262,0489306 -697,6449102 245,1026218
-258,1066529 -749,6660094 267,4803928
-302,2892168 -675,6975532 257,8529897
-249,1468727 -733,8297709 263,1598752
-289,7772951 -647,1055503 256,9380028
-278,7417876 -645,2816229 255,6065952
-270,2512211 -689,504701 253,882729
-273,6959688 -745,7206831 266,9708237
-280,4036232 -666,6262917 249,2379453
-282,6945309 -649,9828012 255,8862579
-257,1075549 -680,9017091 252,9515485
-249,7686602 -658,9756758 253,4813323
-285,9755581 -649,5536791 256,2790448
-288,5337144 -682,4209579 256,1313483
-262,5538342 -659,9952116 253,6372714
-301,761453 -671,5950147 257,0007972
-265,1121729 -738,3219348 265,1248669
-291,1340804 -696,062038 256,6039227
-282,0811638 -682,3740981 255,8475894
-271,044535 -649,9353717 254,6919397
-287,1501019 -677,4213977 257,074982
-256,6085433 -655,7121699 253,1415414
-260,7242141 -741,9199352 262,7927604
-243,9813909 -723,9945486 261,862489
-297,1565925 -668,9595313 257,3137286
-264,2896796 -729,1812331 264,1737821
-265,6221845 -723,3222362 263,8493956
-263,939872 -659,5974978 253,2861636
-284,2529667 -687,0749577 258,5778619
-278,1409655 -656,7148955 254,8546909
-292,082781 -688,895606 256,6064085
-299,3249251 -680,3743493 257,3747425
-292,0355537 -666,7904022 256,1156239
-265,0853607 -659,4370911 254,9015935
-253,017708 -695,0833716 251,990022
-246,3754121 -702,7898739 250,5747251
-285,401217 -651,878249 256,1548495
-271,1664586 -752,9225997 267,2158667
-255,6516234 -692,7461236 252,2021652
-264,9619545 -727,7769987 264,0071075
-271,6898826 -752,931966 269,4073479
-265,7574347 -708,6449716 259,990288
-285,5524811 -711,4596143 254,4816791
-261,4746351 -685,0047943 253,509303
-265,5283296 -714,6616655 251,5051869
-265,3666953 -745,7908898 266,6423721
-261,7229773 -679,9142828 253,6036599
-265,8259241 -743,277621 264,9034983
-269,6666277 -739,1045632 265,7685656
-301,0653999 -663,0630739 257,8345144
-261,5612547 -664,1370492 254,5494401
-274,17357 -674,733355 252,6730587
-255,0185484 -723,7748997 262,5800935
-259,4705362 -673,4482976 253,0731024
-294,2042572 -665,0266989 256,8730212
-265,7354299 -651,0250412 254,075332
-287,7125477 -675,1240423 257,2188159
-274,654965 -650,9094553 254,9777762
-257,7178364 -750,2540975 265,6573681
-292,0752372 -689,1825408 256,6215102
-259,0570267 -731,7478571 263,7482309
-259,9164357 -712,469645 255,2805477
-255,1246719 -656,3505471 253,034592
-288,2043148 -671,9284318 254,1543393
-254,1766974 -655,5600319 253,09915
-260,0093638 -690,7610386 254,126927
-286,3097357 -705,9951209 249,4197922
-246,1345603 -713,9559129 249,8604898
-254,2944535 -715,7380989 250,6431369
-267,9808818 -696,7514422 259,0419906
-257,5252531 -703,2216388 254,3745136
-237,8496825 -712,1882705 259,240171
-277,9731488 -656,480752 255,2231819
-255,4562237 -687,6574209 251,8866373
-253,307057 -687,1204982 251,1916586
-277,7599301 -704,4453009 261,2361235
-292,3096184 -673,3904196 256,1792446
-263,33372 -728,6496331 264,2835935
-266,2319063 -747,7485369 269,4459616
-266,2694166 -649,8735019 254,2634197
-248,449042 -714,7459572 250,1175968
-297,2007542 -656,2704321 257,3041942
-262,5312418 -734,4661953 264,1021489
-283,9568337 -672,0157099 255,8561182
-292,8648833 -669,9958285 257,0072945
-270,996081 -752,6484616 267,5892928
-288,6189123 -668,2227636 257,3159147
-255,0059719 -686,8559748 252,221236
-254,3872314 -670,8333188 252,7790675
-246,9888393 -724,4706119 261,7768631
-257,526505 -715,739383 252,3506362
-282,0647214 -685,5187721 255,8990292
-265,9708352 -656,181057 254,275147
-298,4573958 -675,7945808 257,2178528
-282,5537356 -659,6351072 254,8082498
-260,8138959 -731,4447735 263,859408
-259,5356301 -739,7244413 262,7344431
-278,1542308 -649,9103839 255,523538
-279,4270739 -694,7328817 256,2276588
-268,1793952 -686,5082298 254,3628723
-249,8401482 -710,0759123 252,5257781
-280,9331688 -683,483619 254,9535154
-255,974173 -713,4657988 250,9617556
-284,8011742 -657,4473659 256,7520858
-269,27097 -729,1007987 264,5499704
-239,553645 -701,4442919 256,2385002
-270,8841603 -660,4958827 254,3905323
-296,209401 -700,4769516 252,5762491
-262,8339048 -694,1067871 239,6275486
-285,0574619 -647,292976 256,2254028
-254,898283 -660,041117 252,8868426
-267,962083 -662,0803226 251,8840132
-291,3849538 -672,8567245 256,1343252
-250,8376295 -731,0145759 261,9444383
-275,4065361 -712,163613 257,6088998
-280,4050302 -697,2490679 260,1787956
-267,6197617 -722,7360823 264,128818
-255,489012 -737,8410762 262,347905
-252,7431124 -723,2608302 262,2855108
-277,4650511 -688,1867407 255,0599073
-264,9649099 -739,9882588 265,4690888
-259,8745327 -719,8108751 263,1210803
-273,3777473 -705,7461788 257,3271317
-243,6909845 -706,7538297 249,8304465
-250,1456809 -665,6508382 252,649441
-249,0135171 -693,7173848 250,6420755
-262,7317637 -694,0510898 254,2310901
-268,2456698 -724,3874814 264,0986831
-276,617925 -651,7170602 255,4672976
-290,0102131 -708,5268143 254,9954241
-277,2954411 -652,5208534 255,3460225
-267,5334485 -676,8933351 254,3628362
-271,8373265 -745,700617 264,3725614
-285,3784126 -649,0038901 256,2105429
-260,755719 -690,2608856 255,2375551
-254,6785734 -678,5263011 253,6143221
-283,0964969 -658,1471475 257,0397718
-264,5348829 -742,4528338 264,400124
-256,9241515 -663,9422759 253,1997569
-268,8739283 -751,2941587 268,943574
-255,3026707 -746,145392 264,964678
-249,1046932 -718,3740954 259,4447598
-266,32209 -743,2905861 265,8391237
-270,020532 -672,8010697 254,3151633
-278,5549762 -703,595882 261,5211668
-267,1162083 -661,3972426 253,0883304
-293,2768142 -656,425909 256,8626755
-242,8356831 -706,2104699 249,6985149
-294,5250593 -662,706692 256,8764241
-256,5872042 -721,2743722 263,0964151
-272,9229682 -664,3688757 254,0419042
-296,4560879 -653,4461419 257,5410909
-282,5993749 -672,1060985 256,0862429
-300,5624849 -674,8683835 257,4807359
-285,8436229 -670,9364704 254,5075161
-272,0719548 -682,2380658 255,9951442
-253,3125448 -657,8667835 252,9960986
-283,6905672 -688,2221879 258,4460516
-268,247851 -751,2991108 268,9975222
-254,8976463 -735,9323022 262,9984294
-250,4693454 -725,7837901 262,0329017
-261,2979134 -719,5141815 263,3325813
-251,62555 -727,6941367 262,1503313
-266,2532663 -648,1608823 254,291597
-269,2055009 -680,3268381 255,4833964
-280,0122098 -657,6056198 253,5039498
-260,1971188 -730,075271 263,8803142
-282,22602 -668,1496983 233,974838
-261,383958 -698,8278107 249,5429539
-274,7281868 -757,6022574 270,0780925
-272,5185954 -735,7569161 265,4966498
-273,1222402 -760,9084412 269,6366927
-258,4510901 -732,0343524 263,7619331
-259,2115189 -651,3287559 253,4735527
-281,9850328 -652,8331215 255,3697202
-298,1193372 -657,3830658 257,3705661
-258,7772202 -712,6928097 253,6715362
-270,6982542 -759,2621577 269,6426169
-286,5489699 -711,1779343 255,0238728
-265,6840811 -738,8676527 265,1988885
-269,3176376 -762,8326253 270,0669745
-271,8483097 -758,1596948 269,7618295
-251,5474832 -738,2081318 263,8831816
-286,9658627 -657,5497342 256,1620287
-271,9631511 -699,1920358 259,7505503
-263,2713224 -744,1183249 263,8752998
-258,8215327 -678,5926446 253,215676
-265,7398034 -672,6993251 251,37809
-247,3568286 -700,2170752 250,3501061
-262,0630916 -692,1664342 255,0525865
-268,2870796 -675,3362105 253,3343564
-280,3183704 -691,0248194 256,3207715
-288,6795729 -705,5186711 256,4722321
-262,0574048 -675,0073825 252,7906774
-275,291206 -756,2236559 270,1629718
-254,73294 -718,7646355 261,061727
-274,4187505 -642,9423265 255,485474
-259,9396553 -669,8449318 254,0898772
-257,3418138 -704,0316227 253,3926196
-257,7099214 -750,3054684 264,9915623
-262,887511 -696,2303034 241,6725506
-295,38904 -704,5274121 256,9562417
-251,9900857 -677,4408197 252,7599443
-275,6641148 -697,650907 259,7134219
-263,8085276 -660,4954385 253,5946879
-286,5153361 -709,1599862 254,4278188
-248,0587379 -665,7817915 250,367883
-256,165994 -749,6927437 264,3588121
-250,4752733 -723,8511355 261,9945318
-299,0472382 -679,2275986 257,2991316
-281,7695774 -642,6289474 256,5388272
-296,0357686 -675,016535 256,9770269
-282,7075245 -692,1379172 257,2109066
-247,5670679 -723,0815712 261,8001233
-247,6075385 -689,0368895 254,7058865
-261,7120741 -727,5609502 263,8522079
-265,72377 -750,7708092 269,2661611
-279,7474462 -664,7536414 255,4938095
-281,6160564 -671,8168903 255,5178313
-277,8090614 -645,3358096 255,5906991
-265,4255102 -693,5062287 255,7806106
-272,039262 -749,3582405 269,9531044
-244,8831592 -723,9694531 261,8251789
-239,3397666 -715,5038816 259,9983326
-258,6543203 -667,2919082 253,487401
-264,034885 -748,5774506 268,2949129
-270,0076299 -748,8194232 269,7633527
-257,7304285 -689,625404 253,0057173
-264,4281872 -653,6962806 254,2569295
-259,4272611 -732,2887779 263,594153
-275,7130364 -649,7549516 255,4006999
-253,6573521 -679,7242969 253,8844845
-267,1323686 -664,4637673 252,3783646
-291,7748019 -689,191435 256,5907364
-283,9527479 -688,0564173 256,538656
-292,6699718 -661,3505105 256,7834608
-287,273358 -665,8740459 253,4751116
-299,7901188 -658,5091366 257,8627507
-279,9524134 -646,9502536 255,7025203
-280,6291318 -707,4754575 251,6042278
-274,6891468 -697,431257 259,8469517
-256,9431969 -737,8218717 262,4537749
-263,7502317 -719,7247885 263,2415328
-251,9782733 -655,1307323 253,2377038
-256,6578019 -664,80087 253,1187876
-293,3903847 -668,486719 256,572047
-265,3771735 -704,0733132 253,853643
-280,6765602 -707,7041095 250,8393232
-253,6188816 -723,7963668 262,3453938
-255,6202395 -702,6312595 252,377201
-267,1254693 -670,9601044 251,7292735
-273,3807565 -651,7554713 254,3320861
-277,397456 -706,9513344 260,6993049
-284,3085356 -678,9769549 257,118635
-278,8784875 -673,4250829 256,0413387
-268,095231 -734,9260387 263,8352645
-288,9281504 -662,3963389 256,6751949
-299,0409405 -666,2835934 257,3797838
-255,6136519 -703,784484 253,1527205
-243,4712925 -701,1828107 250,2670001
-254,3417078 -710,7177986 251,1981633
-265,2999385 -659,7369068 255,1204237
-274,9474985 -712,1245491 251,0929397
-267,7318086 -661,0797884 253,0946237
-252,1843727 -726,3067722 262,2266494
-277,3363013 -641,9596319 255,9443059
-250,4374958 -691,4281452 250,8341136
-246,0762936 -728,6454322 262,6091694
-261,4720366 -700,2387426 240,7220142
-280,5779365 -647,7782984 255,7075956
-284,9617023 -711,7543077 254,407059
-257,27224 -661,0731785 253,0778709
-244,9802184 -721,4791598 261,5528987
-285,0112637 -712,6331844 254,9721826
-285,7126815 -712,6417887 255,4777771
-247,8126748 -710,566925 250,1389326
-262,3289172 -693,3809076 241,5210938
-251,8139129 -719,9651779 262,300932
-268,1113903 -700,7023758 259,4553309
-269,0552613 -708,7910049 254,5990805
-248,9449174 -664,2082932 251,8537023
-259,4296931 -663,313802 253,7926033
-299,2898645 -668,5906843 257,5086478
-259,3389676 -729,7867423 263,0793153
-248,0100548 -720,6026665 262,1271696
-283,0500208 -681,536971 256,4625381
-258,4883262 -649,1146773 253,7018295
-273,6037373 -677,3453327 255,9996929
-264,7587713 -660,0308418 254,9494891
-277,7841582 -694,136493 255,0595711
-252,4570852 -735,6982385 263,1066717
-296,0533398 -672,7139889 256,9502629
-269,047836 -672,9215514 255,1070971
-280,6540174 -657,1088396 256,8903594
-254,8896406 -715,1634714 250,66827
-269,5182962 -680,8802324 255,4775959
-288,6051672 -667,0785647 257,3456919
-274,001015 -714,4786997 263,4452476
-275,0907926 -710,0138989 254,2063373
-263,3898275 -673,7087721 254,6644393
-263,1856124 -683,5493274 253,8019508
-268,3605665 -728,2861228 264,5437066
-259,7439029 -759,2945112 268,6349822
-293,2537861 -653,2591915 256,9271732
-291,5058473 -693,4650962 256,4709928
-252,9364418 -672,577929 252,6140927
-264,7747354 -701,1905001 256,6340156
-283,0398452 -686,61471 255,8225447
-259,522291 -704,4787714 252,5931488
-255,3530442 -743,6460541 263,4211707
-253,7581005 -676,8068755 252,8882552
-279,7634948 -683,8007192 254,7818879
-268,1500643 -759,2687399 269,2782354
-263,5076729 -697,0541042 253,1854245
-287,1153232 -671,0945673 253,807582
-262,1087037 -737,4852748 263,0343561
-259,9737952 -689,4169607 254,911614
-269,4649484 -762,5604522 269,7373655
-286,9985835 -644,9420494 256,8034188
-269,8070192 -661,4477465 254,7239935
-256,7294337 -733,4384113 263,5912906
-245,9985222 -706,7003813 250,0948704
-251,3683583 -712,9984335 250,3529955
-271,7489749 -737,4169548 265,8544475
-272,6881698 -706,7315422 254,7415584
-249,2943221 -669,3609006 252,556795
-261,3623239 -688,9925746 253,8145785
-249,5983559 -658,0935623 253,1434394
-287,7322739 -712,042305 255,8382155
-263,5733612 -670,1737646 253,5028628
-265,7119565 -656,4638109 254,1574638
-248,4677771 -698,789755 250,5702471
-263,2338445 -649,458049 254,1261687
-289,9695164 -673,8058649 256,4468534
-264,9818735 -707,868059 241,2692747
-267,9124457 -693,0250913 254,318784
-251,5202632 -657,9567053 252,9068417
-268,3192205 -646,0588043 254,5153717
-296,3914706 -664,0618152 256,9506587
-269,1299798 -662,4549488 250,646207
-249,5289858 -691,1812791 250,8276009
-273,867717 -755,677496 269,9605831
-239,6514174 -700,079416 256,7440365
-272,9036579 -700,2835019 259,7154868
-258,2345745 -730,9269958 263,5565451
-282,9844702 -645,6500655 255,9466769
-293,0233735 -675,4056293 256,6536654
-266,1993815 -655,6200367 254,4575199
-254,6770472 -670,822318 252,8148815
-282,1603531 -681,5603379 256,3523999
-300,39001 -659,9291052 257,9312089
-270,1797672 -642,8791528 255,2088962
-270,706279 -712,3528832 248,7951114
-280,7298374 -652,6150736 255,3669215
-256,8326617 -731,7740499 263,3346614
-292,0742856 -656,7660136 256,7273037
-271,1649017 -697,0135461 260,1575641
-281,6892115 -686,6842011 256,0390913
-267,3521263 -690,5443132 254,8738525
-283,4334718 -694,4577324 258,3225319
-291,6896113 -711,313054 254,7639113
-262,6189271 -715,2682689 262,3533667
-255,4843857 -659,4506181 252,9465246
-265,7645534 -712,3279346 250,2346516
-258,9261361 -711,7037688 256,1498084
-261,4736483 -668,4275033 254,7912702
-258,1821361 -666,144719 253,1482144
-251,6461999 -678,3154871 252,8710043
-289,4667746 -683,5285728 256,1527425
-262,1769506 -703,0792664 254,1868043
-287,149291 -713,1931271 255,0950849
-254,0048503 -715,7433334 250,6089841
-266,1329592 -644,7576072 254,5385863
-281,9623156 -667,2099616 233,1347089
-277,1974677 -695,6644354 256,3448339
-272,555715 -684,5079458 256,2983117
-264,7241395 -655,8766283 253,582245
-278,4148577 -704,8113613 258,4524713
-271,435623 -666,7204991 253,9139713
-259,452692 -734,2045195 262,872128
-263,5806428 -679,190544 252,8425196
-255,3211295 -711,5270847 251,0536798
-252,7597927 -678,6326139 253,8349552
-290,0519462 -660,5775661 256,3144579
-291,7878965 -662,8276231 256,6463878
-255,5859282 -709,6388421 252,5644869
-262,9662018 -737,7525795 263,1423173
-268,7388671 -751,0231455 269,2450618
-288,5033804 -696,7271211 252,8206329
-289,7184294 -666,4119914 256,9923046
-277,8768734 -659,228986 254,0802745
-249,92739 -735,4738943 263,4511525
-260,9370651 -725,0756195 263,5332384
-262,3261114 -646,9306106 254,0656957
-258,2052973 -672,7379884 253,8752594
-266,9312269 -735,2175319 263,7280926
-283,9428831 -693,273397 257,8968122
-287,1852674 -656,1245737 256,3721409
-266,4696433 -683,4280579 254,0179354
-258,7945672 -730,6442915 263,6491329
-248,5192816 -663,4140316 252,1385906
-298,2807279 -655,6782904 257,7046612
-243,5855973 -724,7912005 260,700396
-284,7699904 -648,1676003 256,1642634
-293,2701738 -653,542666 256,8912634
-247,3135972 -719,4908501 261,6216537
-275,7530574 -682,3758168 256,0758023
-249,2603599 -690,1206148 251,4637502
-296,9459588 -667,5078803 257,0998661
-239,5394502 -715,7765668 260,2463119
-261,8206238 -722,2862336 263,5509818
-294,887303 -673,3204982 256,7350257
-245,0011393 -721,75149 261,5062343
-269,9809113 -690,9804263 254,5008262
-291,7353297 -652,7494952 256,7882218
-262,6269339 -732,8199465 264,5602936
-267,4542606 -665,8968059 255,1758473
-283,2940549 -661,3731819 255,2509444
-281,3819509 -658,9516188 253,271626
-258,3232447 -653,3683777 253,412954
-275,1009076 -689,3938629 254,8022432
-258,0144745 -733,4121107 263,3976811
-252,6056236 -701,0191493 252,3238748
-250,5767906 -656,7916368 252,2272973
-257,4216837 -713,4362775 251,13896
-251,9123548 -729,0705607 262,1974767
-237,6126813 -709,1096633 258,2930593
-272,4473212 -736,8632175 265,6517721
-258,7733574 -732,0268522 263,7119143
-267,5710314 -662,1188519 252,0642392
-299,2789098 -671,1870305 257,5201244
-263,5057283 -695,3633983 253,1808315
-239,32388 -700,0990879 256,8180423
-264,6531091 -755,1655701 269,0047227
-295,093879 -684,8019859 256,9232291
-289,2572253 -702,2219762 249,8620344
-259,694857 -727,286794 262,9313508
-276,5543618 -645,7030284 255,6014547
-268,3593304 -732,1475997 263,8971245
-271,3653809 -656,5845293 255,3834638
-278,2181028 -694,1515391 255,4704408
-277,4496005 -664,5326978 255,0494633
-253,8976592 -723,7918316 262,394931
-252,8456389 -698,7750545 252,4487544
-268,1021648 -659,4956594 254,3612267
-300,5305003 -678,0399733 257,5274082
-269,1183809 -737,9684975 264,2788657
-257,2744847 -741,6796238 262,4197498
-254,2791019 -663,4840199 252,9406353
-267,850589 -758,7200434 269,2708523
-250,4959306 -697,3320017 250,7797853
-257,4602408 -735,333755 262,6224432
-262,3829079 -695,0879328 252,910399
-270,123666 -728,8140313 264,6824164
-269,0113264 -698,423394 259,4709839
-245,3772525 -695,6430706 252,152591
-254,8371461 -656,3623602 252,9920343
-301,2913984 -669,6305569 257,3212793
-261,8892678 -690,1738594 254,7310648
-259,5462556 -657,8662648 253,4706322
-254,3239047 -701,5372944 252,5716244
-288,9847557 -702,8715387 255,1669324
-261,2094726 -759,2540642 268,705348
-263,0012213 -759,0102094 268,7069335
-256,2357135 -712,3419279 251,0537594
-262,2242262 -656,034351 253,6710965
-265,0494651 -746,3736144 268,7128633
-274,6507577 -714,0995507 256,5632738
-268,9031052 -739,6584456 265,4438451
-260,4416894 -657,5400443 253,5311585
-259,8274427 -744,1379701 262,7937678
-275,948824 -680,0132891 252,1732909
-285,501921 -680,078573 257,2453545
-274,8739343 -692,7942323 254,6346263
-265,8259756 -661,5601962 253,9191357
-266,5028449 -689,6523938 253,9885876
-255,8778117 -723,7605363 262,6764883
-265,7785973 -733,8462168 263,5833853
-278,8900429 -686,164073 255,340982
-297,6087569 -665,7416019 257,0535583
-282,1539594 -668,828425 237,6909568
-240,5494416 -710,7480294 254,7120138
-251,6101194 -723,5563063 262,1362383
-297,1526095 -669,2484506 257,3206112
-289,1446349 -697,1462343 254,8307338
-293,7898885 -704,2244274 256,3065882
-271,9619058 -729,6432272 265,3431722
-280,1484219 -698,4237185 260,7338905
-261,8012254 -735,5541449 263,0259443
-290,5051646 -692,9475053 256,605351
-269,6565274 -709,1335349 235,4954106
-263,9699915 -733,6149556 264,2497431
-275,0717076 -688,5475757 254,8627891
-260,0365809 -699,5338601 242,638027
-286,4659092 -645,2344601 256,5906528
-258,5241887 -690,1262026 252,5833041
-293,5043375 -669,3876296 256,9927257
-251,7857751 -700,7026165 251,3764888
-296,6828829 -678,7174051 256,9346575
-255,9796689 -713,7453052 250,9518207
-280,8079398 -657,7085346 257,224792
-261,2097763 -684,1625437 253,4115582
-254,7970123 -689,6687715 252,0294802
-265,0036095 -734,9752633 263,973653
-257,554381 -732,601076 263,757497
-260,2928243 -682,220421 253,3885541
-260,0736949 -662,9822154 253,711207
-270,0656267 -645,1267557 254,7767368
-258,3832274 -716,9144817 253,9291844
-246,9928798 -718,3710633 260,2134183
-269,1542944 -738,551642 265,5536237
-273,7991401 -713,5112133 243,9433768
-254,7712924 -709,886651 251,612193
-272,8132552 -641,9030046 255,5840204
-244,779752 -700,5619592 250,0073905
-262,3668167 -723,939513 263,6912856
-287,0464168 -691,5972492 255,9508425
-248,7762412 -734,6854321 264,062771
-270,4224137 -709,2638898 253,5972455
-286,6516818 -680,6180251 257,4635969
-249,6527738 -673,8554212 252,5030124
-252,7389895 -661,5862978 252,959527
-253,5350114 -671,9862245 252,6340755
-248,7855057 -728,2913263 261,8113465
-256,9552506 -752,4576481 268,0962523
-293,3135455 -648,9931222 257,4935605
-292,9740199 -659,0334782 256,8205383
-268,9303022 -663,7316382 251,7972914
-284,5872582 -692,6308937 257,1883059
-269,0113881 -697,8609412 259,4660595
-296,6583302 -661,1773077 257,0721247
-255,6123296 -708,7921185 252,4923585
-252,0629504 -674,0278367 252,5407476
-280,8272837 -665,9507005 253,8208257
-264,4452228 -687,4509758 253,7554443
-252,8166813 -715,4910772 250,5464808
-269,4430644 -748,8226115 269,6770717
-278,6304266 -688,1564224 255,2334293
-264,1675925 -653,6980415 254,1469216
-254,9044191 -740,6053723 262,3399768
-292,120793 -699,445765 256,5061276
-258,587341 -663,3386217 253,6131837
-298,6964549 -668,6094477 257,4193347
-272,4161535 -736,567144 265,7194479
-284,4777443 -669,2214733 256,7596979
-268,1389898 -758,7196044 269,2986817
-260,1641286 -742,7538983 262,7037585
-253,9236966 -733,7301116 262,454777
-256,6042447 -676,4426896 253,3707275
-289,7222106 -666,6981923 256,983607
-262,5727188 -662,5608191 253,6227089
-265,4875292 -753,2419892 269,1384553
-267,6478294 -699,0125515 259,1129774
-250,1563395 -734,6304546 262,8912689
-254,0693153 -689,3792688 251,5836124
-276,8975334 -709,3154641 262,4611038
-269,7076094 -671,6820224 254,3221181
-252,410161 -701,5686987 252,0691542
-255,0105672 -700,6139608 251,6547447
-251,6674009 -711,0653472 251,0645631
-271,2534742 -751,83528 269,6977519
-281,084089 -643,746772 255,9739794
-270,6154843 -725,7369354 264,2548796
-286,7410361 -711,187133 255,2819539
-253,1809235 -667,2010227 252,6973491
-260,7193352 -723,4114812 263,3269257
-252,7902425 -727,6735294 262,226155
-288,6301101 -668,5068871 257,2920534
-275,6177037 -683,7034238 254,9979605
-270,0971741 -690,3884747 254,2350418
-255,221455 -716,3077028 251,3317653
-258,254079 -684,8288842 253,1739512
-262,7388996 -741,0813883 263,6796763
-258,9037749 -730,357382 263,3944002
-252,403841 -693,3622978 251,2558739
-269,3455888 -720,4795895 264,3169128
-263,7680095 -731,6751295 264,005162
-258,7574345 -751,3894588 270,1006497
-258,0522236 -655,0832674 253,3429699
-255,766066 -659,1577287 253,0024805
-289,3332066 -694,5922577 255,0989931
-280,5714313 -649,7947697 255,7194391
-257,0556516 -684,5889077 253,1144832
-298,510529 -673,1944935 257,1217229
-254,69119 -707,9386265 251,7888214
-257,9605131 -677,7690433 253,0741803
-247,9087397 -694,5832021 250,3938376
-270,1527305 -650,8366063 254,6044534
-278,1416519 -698,2320618 257,0114986
-273,7131883 -648,6648824 254,9813434
-284,8998058 -676,8592631 253,1374469
-271,9360569 -736,3137968 266,1091469
-253,7605147 -668,0307744 252,7801759
-283,2583392 -691,408083 255,3523016
-266,1917183 -696,2682389 255,4436249
-269,6579316 -686,4652258 254,5128956
-287,2007551 -647,7615264 256,3640086
-261,2320801 -686,416439 253,3745878
-287,0269381 -663,5567719 255,9999911
-273,9904004 -646,3587096 255,052399
-264,6408974 -754,8920674 269,0303876
-255,6673859 -654,6312874 253,1815755
-264,3585424 -652,5742223 254,405904
-272,8288321 -677,720293 253,5758357
-247,0104379 -710,2960119 249,8812999
-251,1391122 -733,4885049 261,9636356
-261,962547 -702,0420405 255,3827622
-261,4457562 -667,5855324 254,8514319
-277,6759791 -678,5501144 252,5005095
-268,866326 -666,7226581 255,4966175
-294,2362608 -671,9176307 256,7768141
-286,4389647 -706,2364089 248,4773862
-264,4513129 -679,2363264 253,6817008
-282,8343504 -693,6649544 254,9172998
-255,6730977 -727,9025707 262,4984416
-266,2414557 -678,1640213 255,2053676
-263,0144088 -707,1561226 247,9851572
-289,0281115 -690,4193945 256,4087807
-261,0196963 -671,3914452 253,0297946
-287,8354753 -670,1561717 256,2916657
-247,8887454 -694,3061485 250,4385387
-258,6083045 -734,7670935 262,7458518
-290,1825692 -693,2460027 256,623624
-270,1563357 -745,7214808 264,7306968
-284,1780725 -648,1921793 256,0827506
-269,3729967 -723,5384935 264,2907819
-288,9060984 -668,2142962 257,3736865
-283,806711 -688,8203603 258,8684532
-267,8503703 -699,8603254 259,3459704
-246,0102868 -707,5395889 250,0785723
-263,417499 -671,3560218 253,8725179
-280,2697157 -697,3155701 257,1003628
-278,383904 -689,2927191 255,0970792
-251,3761103 -655,7278239 253,2198026
-278,9504373 -682,7875992 255,869737
-248,9084243 -663,3718468 251,9351119
-302,9294744 -665,8620357 257,9100585
-288,3326058 -691,2590297 255,8827358
-254,8282608 -656,649565 253,014894
-293,2361159 -652,3989645 256,9693052
-252,248553 -732,0969457 262,15198
-266,8823295 -743,2866945 265,940715
-282,5339683 -671,2027469 255,5581881
-264,0112655 -708,9647631 254,9305128
-289,9311858 -710,8085358 255,1533352
-261,3086633 -747,7879448 267,6733983
-281,3219469 -695,475384 259,5329118
-243,5289931 -709,5382204 249,5311519
-259,3954116 -746,1167724 265,8758561
-258,3814872 -740,5662602 262,6312025
-264,7196148 -657,8800467 253,608814
-289,8833216 -676,91805 255,9601112
-284,4817446 -649,6200783 256,1058278
-267,6658195 -656,1259398 254,634162
-268,6243771 -646,0419106 254,5273815
-290,6761682 -678,911152 256,2683774
-271,1577313 -653,6179906 254,4409095
-253,4265863 -665,2176452 252,8143836
-263,1505933 -680,1572326 253,8502576
-253,2693807 -688,824066 251,3043762
-255,5112272 -665,9768155 252,951058
-273,7020721 -649,5321688 255,0106088
-264,4872744 -667,4877882 252,7838116
-294,529087 -660,1120287 256,8801803
-269,49586 -645,7204017 254,662244
-277,1936538 -689,8969642 254,9821251
-272,1923218 -698,3543884 259,9212381
-271,8381308 -656,7955595 255,0119515
-269,8408925 -689,7590266 256,8834315
-273,0466785 -756,5056613 269,775673
-277,53448 -673,1318283 252,184076
-260,6880739 -650,9751567 253,6151236
-260,0368727 -679,3901256 253,2455468
-285,7374732 -713,2051366 255,4236477
-256,1357591 -749,1665009 265,8347694
-290,7555715 -662,5416489 256,1592769
-292,5294926 -700,2723293 256,3123035
-260,6982585 -747,2339847 268,3820444
-281,3272536 -658,6788876 253,3880019
-252,1385779 -698,9976286 251,2404628
-278,9316184 -686,7251786 255,2534686
-261,5846872 -720,0647543 263,3737681
-265,0026993 -680,0758494 253,8327669
-291,9895175 -671,9741142 256,195281
-260,2590314 -751,1125288 273,4634373
-260,9670333 -723,1346828 263,4491286
-280,3884639 -653,2186849 255,4295563
-252,2884091 -737,6370632 263,5287475
-289,6893604 -709,6708369 255,0048138
-287,981274 -678,2026453 256,6426223
-273,5791161 -710,0498365 254,1249373
-268,273721 -725,7723311 264,0450945
-241,5550876 -703,2729601 251,3245407
-282,0441432 -685,8087298 255,9445934
-293,1072696 -674,2382132 256,4829081
-276,3344388 -709,8510524 261,6886358
-251,032908 -693,3810543 250,8904315
-265,5472502 -645,3571332 254,4658428
-288,8698011 -660,9015662 256,134482
-281,1899319 -679,7715773 255,0611793
-286,5522983 -655,299866 256,3840784
-266,1219252 -666,8883262 253,2749068
-280,1024325 -686,1234081 255,4161165
-270,078435 -746,2859322 265,5782782
-253,2473245 -671,9964633 252,593522
-248,8679497 -702,1828011 251,1217798
-268,3885792 -721,3430613 264,4349071
-281,8914975 -657,0507473 256,9320972
-291,3169156 -708,3612395 257,5483918
-270,4865061 -716,4891124 256,9865307
-245,8039872 -703,928814 250,5207571
-256,797634 -683,4646887 252,9983014
-270,3981591 -758,4383394 269,632878
-291,0674092 -663,1024569 256,167147
-266,2347753 -737,4494605 263,9551721
-256,5093092 -729,5502049 262,6671871
-285,2491526 -687,2538387 257,7821302
-301,2020751 -672,5325523 257,4841736
-250,1744266 -662,7258128 251,8118634
-272,937611 -753,4792032 269,9951156
-251,3155124 -698,4429071 251,0121358
-268,0029879 -673,7850439 251,8666241
-256,9677188 -674,2175817 253,9272085
-252,6436076 -698,7654537 252,2078046
-282,1010512 -658,6771543 253,7503624
-265,939675 -743,2841362 265,3315621
-280,6088734 -688,6871648 255,6785512
-282,7269195 -683,7133185 255,134436
-252,2604406 -732,9238037 262,1356053
-280,5548213 -666,8789914 251,6675956
-264,8318513 -719,9912846 263,5386338
-248,5173475 -696,811369 250,4197212
-292,9967627 -659,6029652 256,7701425
-256,5200553 -731,2094306 262,6673597
-289,4223027 -684,3961039 256,2459664
-283,0249155 -670,7020094 256,5220293
-261,3702939 -732,8030937 263,2971475
-283,6525854 -659,2071338 256,5196584
-265,7382414 -743,2695279 264,419509
-293,3280263 -703,6436644 255,9508879
-268,9411269 -693,5086717 257,5426899
-282,1704318 -672,9396375 255,6583655
-262,3521059 -746,0676953 264,6042162
-255,6005566 -695,8118707 251,6460669
-268,4098286 -697,780485 253,916999
-271,4438826 -655,4988946 255,9001251
-245,2936084 -709,2135997 249,6367323
-274,3618451 -708,4855868 256,5285724
-265,9837405 -749,9465967 269,3534062
-270,7249118 -709,8167559 253,6090615
-259,8432588 -744,4464502 264,8321303
-280,3910463 -685,258798 255,4589884
-292,1561232 -690,3215545 256,4558226
-250,1056838 -711,6389643 250,4604313
-260,2017627 -747,2355073 268,1493459
-276,8070826 -710,1685741 262,6571818
-253,5332681 -693,390592 252,1864811
-270,6958055 -736,8380264 264,1522411
-259,6727409 -747,7841542 267,994208
-274,1247292 -655,0947909 256,1587997
-292,1574792 -677,4337199 256,4748816
-267,2167415 -679,8097535 255,0959008
-259,4181085 -683,3819782 253,3029909
-253,3650471 -686,2599886 251,0444098
-258,3585321 -673,8306856 253,5307808
-257,3870325 -727,5992591 262,7013818
-285,806891 -655,5783076 255,9566175
-256,5008187 -729,2741337 262,6836603
-253,5206882 -678,6327066 254,1971338
-268,1344743 -737,4188636 263,7717195
-288,4166174 -650,010252 256,4554598
-265,2243498 -740,5385283 265,5685339
-248,1978385 -699,9181905 250,5072283
-267,1218653 -751,8554598 268,8256265
-262,8186885 -712,1686055 261,8659769
-270,0264259 -652,2212279 254,189152
-263,5993045 -666,8215871 254,1142805
-256,5998467 -655,9993838 253,1634746
-294,8532585 -678,4944057 256,7864006
-276,8792102 -687,0638292 254,974086
-265,4295916 -695,4180212 255,0673717
-290,9499326 -679,7661645 256,3538939
-271,296471 -757,3353064 268,9760303
-273,5155755 -661,9493462 258,2378266
-278,619275 -664,7061367 254,54181
-267,6670569 -685,087804 254,1106713
-243,1906958 -694,3420335 256,0329833
-276,698085 -681,0640765 254,6583067
-267,6788526 -727,7508166 264,7100627
-268,3295137 -667,0088191 255,3056585
-269,7369113 -725,7505132 264,1746753
-253,2892809 -661,0024901 253,0913624
-280,5740023 -680,778745 256,4094139
-248,2985456 -720,874505 262,1577475
-274,276063 -714,0129527 260,1146123
-281,2072175 -717,8460706 253,1660321
-276,8117383 -710,4610826 262,6519322
-265,0522533 -734,6942873 263,8613827
-242,5246862 -706,7820978 249,7330686
-269,8351902 -734,6272592 264,0170156
-239,5795933 -705,4643263 254,0552771
-251,6324355 -727,417856 262,1302862
-267,5517701 -699,8723066 255,1789335
-291,8056965 -697,1756323 256,513577
-277,4803329 -643,6324717 255,6241949
-271,6586286 -728,5344099 265,3320776
-247,0060749 -713,0957035 249,9294968
-265,9797464 -702,9168176 258,0511145
-290,7965029 -693,8000007 256,6552494
-273,3095272 -657,1421562 253,8054009
-293,0923315 -672,8091235 256,5219029
-262,1013192 -699,6771071 245,7245333
-263,7495005 -657,3674793 253,6952948
-254,0066026 -683,6571278 253,8393255
-246,8386636 -689,93917 255,1246372
-281,1417269 -666,7472828 239,897719
-278,963471 -689,5622828 255,1916203
-258,3865098 -737,2517487 262,581278
-256,4631418 -685,5223175 253,8069183
-264,4392472 -684,0596153 253,7499429
-274,9426312 -752,9204824 270,2426444
-262,7942861 -728,377516 264,1332472
-281,8919796 -679,8559872 256,2603763
-290,0109744 -686,0945177 256,329964
-277,4862498 -674,0206413 255,6753331
-268,3375993 -733,5367105 263,9574494
-284,2817503 -688,4890401 258,5179831
-276,1061081 -664,6049189 252,4949943
-288,7952305 -692,1205308 256,226127
-269,8652338 -660,0017378 254,5874066
-278,7566869 -644,9881731 255,5738412
-276,2066239 -642,5696975 255,6774896
-264,5710716 -706,8496627 252,8958857
-263,4098315 -738,3063482 263,5041533
-264,8046382 -725,2721849 263,6588378
-246,2122827 -697,1543657 250,1407436
-280,5957896 -669,4546318 254,3287614
-253,3442113 -727,1141594 262,3257059
-252,1418926 -694,4901809 251,1673726
-253,3884594 -663,239382 252,8773606
-286,2238033 -686,5858703 257,0384508
-293,8886649 -657,8406665 256,9032686
-262,0303954 -699,0678429 253,0730863
-288,4362817 -678,1569298 256,3467026
-260,4178606 -656,692992 253,5804865
-251,8965767 -698,9944892 251,0914477
-287,8254453 -650,0336933 256,3689639
-290,1249165 -671,2486888 256,7859479
-263,0881457 -655,4296199 253,8030196
-281,1424436 -678,4232185 255,8487261
-260,6252648 -736,1235204 262,9637975
-261,1990365 -713,1948014 253,7244251
-269,8469385 -668,6613467 255,4023037
-261,3626933 -702,8593826 254,6635616
-286,1370314 -676,9085985 257,2276673
-281,4988798 -650,3209863 255,7503202
-280,1206165 -682,4696535 256,0352957
-276,8494892 -702,3225569 258,4878987
-247,0458524 -688,5521932 255,3355528
-254,1982113 -727,3775716 262,4335384
-265,9413042 -687,3995995 253,8492863
-261,3325072 -664,1286315 254,3679586
-268,9369383 -646,8841512 254,5269563
-276,8542445 -646,2628747 255,6287336
-278,0172047 -694,140908 255,2294663
-265,7960696 -699,8638912 254,275066
-297,2616862 -678,4166251 257,0514122
-287,7695033 -656,390545 256,4682229
-263,9318902 -699,6474496 254,3295981
-259,1922764 -703,4512969 254,04317
-268,3780822 -739,9377299 265,2642916
-255,3221284 -716,0124955 251,089466
-269,735756 -692,8549412 252,9778157
-249,2831925 -699,0591572 250,7997642
-258,1150479 -711,5560397 253,0700224
-257,5921005 -716,3269805 252,9185608
-249,0618094 -695,6770393 250,5523428
-252,2194568 -664,421641 252,7687459
-267,8855534 -716,1184675 253,8410038
-256,2356735 -653,4695174 253,2713934
-254,8561072 -715,728769 250,7521172
-256,0988282 -738,9355009 262,3379874
-258,53247 -718,976684 262,0586026
-294,8417115 -650,3662814 257,6144196
-266,9734959 -757,899439 269,207521
-284,2592724 -686,7896795 258,5648431
-263,6318425 -712,1939407 252,3122456
-256,0198101 -692,4402549 252,0510372
-265,9231117 -709,7394065 259,6176435
-296,3625561 -673,2762071 256,9644985
-248,7209879 -711,6590059 250,1474466
-251,7517351 -707,4061425 250,8463093
-272,4148654 -755,1275485 267,8432217
-266,1222577 -691,6600491 254,1700608
-258,6824241 -737,7997791 262,5985309
-265,3051513 -715,2595664 252,0242031
-297,6131044 -661,992831 257,0661759
-268,7284645 -708,6567113 236,9230138
-252,0420181 -669,7890644 252,5380891
-267,5154335 -677,4642587 254,4052285
-292,8945921 -702,5302171 256,1959215
-264,5142445 -726,3880216 263,6428185
-287,4205855 -693,8473285 255,8109824
-260,1071313 -732,54996 263,4236946
-279,7680184 -690,1239446 255,4769689
-267,901775 -693,9240519 255,0415821
-290,7666445 -697,7486954 256,054596
-275,7551273 -651,1766469 255,3096173
-265,519808 -705,7752161 254,2256021
-256,6224703 -674,2435351 254,0224302
-247,5828047 -711,6818833 249,9752355
-264,6638852 -757,9064433 268,9978793
-268,2052042 -723,2811529 264,1817493
-274,5120238 -659,6758029 253,9232517
-259,2275009 -662,7280209 253,543798
-262,9685676 -660,2333618 253,3986892
-256,9229008 -736,7188083 262,4873484
-279,5288298 -686,9915452 255,3107293
-255,6223478 -692,4702645 252,2683602
-266,618931 -670,039178 250,7746132
-256,0173985 -674,5539575 254,0142699
-296,3725444 -680,4497946 256,9132842
-249,6466688 -730,7596365 261,9270436
-269,9120627 -722,4218243 264,4379196
-278,3653763 -653,5754348 255,0606491
-299,0359439 -676,3570593 257,335486
-290,6163744 -697,7302135 255,7095594
-258,1548722 -732,3151001 263,7546888
-255,7955993 -745,8582483 264,5058459
-268,6331521 -648,9081972 254,5213301
-278,2863402 -709,8007617 251,9440837
-267,9506651 -685,9338053 254,1757757
-269,7036087 -690,1277164 257,8885316
-293,6218229 -681,4057867 256,7064241
-292,2525951 -690,5820451 256,2563246
-268,586606 -653,1292348 253,9356414
-256,529185 -746,9540507 264,8951077
-289,6036164 -694,0664408 255,8549954
-267,0665911 -723,8530972 264,015159
-249,3612387 -729,6616289 261,8821465
-259,1991788 -745,8395288 265,6354285
-287,8378499 -665,6349308 254,27636
-279,4768286 -690,6993246 255,4339731
-292,3396802 -705,1513149 256,7157716
-300,3742763 -659,3546594 257,9657536
-266,2100569 -686,5466634 253,9316387
-280,6989908 -671,0053477 252,7361553
-269,0058274 -720,7700658 264,4021105
-269,728253 -748,8213271 269,7136084
-290,3401905 -704,8922457 256,2825134
-275,7137728 -691,0774202 254,8293648
-281,8650572 -659,7472925 252,9042911
-269,6236766 -662,4858292 253,7377757
-271,1606634 -734,0650598 264,452007
-292,0150305 -673,6869555 256,1337671
-280,7434523 -715,5620306 254,777905
-263,4688014 -695,8791249 241,0349305
-243,9562936 -703,3823054 249,8554944
-244,1358388 -719,0240109 261,374804
-296,697727 -664,3374897 256,9735895
-267,6381316 -690,5384201 254,9243463
-284,3671377 -655,3318773 255,6636277
-280,982886 -675,6103713 256,1926206
-267,281168 -680,0755911 254,9481407
-269,0941224 -740,2000671 265,0206414
-260,3292769 -664,1241541 253,8472715
-278,7694187 -701,4530468 259,0227661
-245,9280348 -698,0036267 250,1088913
-269,3604997 -691,8361573 257,9730899
-269,9862521 -729,916498 264,3244585
-266,5793251 -743,0139188 265,9391137
-264,7720685 -712,1076853 251,8257221
-284,9551616 -644,4406034 256,4495112
-258,8532871 -681,9773263 253,1705387
-289,5607828 -678,0786684 255,9727615
-270,837415 -725,1847605 264,4365602
-270,3824682 -735,73328 264,1629697
-276,2483973 -755,1262935 270,0625653
-253,6415223 -694,5477412 252,6686621
-251,8836269 -693,9262906 251,0480347
-253,4486818 -665,7786001 252,7689681
-279,048649 -709,1606989 250,9601599
-274,5339154 -714,1512361 257,5045662
-256,7032567 -740,5818666 262,3398424
-272,4034901 -754,5771258 268,5223768
-286,5370997 -659,9779527 257,0720169
-254,0772785 -673,1137479 252,815395
-263,4805766 -650,8943682 254,2819595
-274,8952092 -693,0726087 254,5878265
-269,6423261 -720,4739381 264,3334315
-291,8423139 -680,5979611 256,4659686
-262,6335685 -702,2939957 255,2479722
-301,5544029 -669,0555334 257,4424017
-242,4002879 -718,7567779 262,0457256
-245,1699602 -735,8024685 271,978867
-250,9705578 -688,8874158 250,9817751
-251,0560214 -664,7535099 252,6435073
-261,7516222 -699,0777092 240,7579428
-253,3968024 -694,8284985 252,5330506
-260,6538763 -737,5035015 262,91387
-281,5932003 -658,6768369 253,493058
-257,5065344 -675,2734084 253,3945345
-264,4932026 -745,7888895 265,8956428
-283,6256656 -687,1112861 255,2303317
-289,0697378 -688,414048 256,3224337
-261,9415769 -706,1802601 249,7569727
-285,598495 -710,3158738 254,3790206
-273,5649996 -749,0711516 269,9250538
-261,39974 -697,8454672 251,6456918
-241,4183263 -704,9330567 250,9541556
-247,0003343 -724,1939335 261,7448205
-248,7902065 -695,9627517 250,4803779
-268,5212069 -661,7836248 252,0260847
-271,1002175 -662,4679578 256,7090326
-269,8645747 -692,5962608 253,3804103
-256,2735313 -654,598989 253,1972591
-255,3568446 -730,6742366 262,5702967
-268,1046338 -670,6993105 255,1373465
-260,8802218 -680,7856286 253,4338276
-277,1608466 -710,495298 253,735877
-260,5612671 -683,3495367 253,4896476
-296,3178701 -659,4695802 257,128174
-267,5632785 -643,2731727 254,8067565
-248,6371004 -687,5676458 254,3872104
-282,412369 -655,4539013 255,8086112
-282,0806814 -668,1860499 237,1369575
-247,1276907 -718,9425474 261,3413309
-288,638949 -711,1709669 255,9063774
-288,9492615 -671,0660414 257,2727359
-297,8328925 -680,1273455 257,1767152
-263,4385283 -753,2503385 269,0159652
-268,7889897 -726,8801465 264,2584489
-269,9603878 -751,2894756 269,2127009
-289,9584599 -646,2669728 257,2246843
-246,0965427 -702,7947767 250,5181987
-274,4209099 -755,6757874 270,0752
-285,7819745 -656,158594 256,0048001
-288,323365 -672,2388849 257,261399
-262,7060369 -673,193563 254,8262143
-250,4061558 -736,8505152 263,7535035
-255,6846846 -686,1550929 254,2182436
-285,8458077 -689,6903399 256,5076537
-251,0157714 -690,8502731 250,9011266
-286,32261 -712,9105406 255,5073453
-261,6683072 -698,7465244 252,4669309
-257,3049552 -685,1566679 253,2542613
-291,7738646 -656,2030449 256,6969828
-275,4415778 -681,1199192 254,6876346
-270,0263768 -752,3852743 267,0562659
-281,2740916 -712,6874388 254,2739366
-280,2970466 -706,3949428 252,9968396
-262,2548072 -689,5257554 253,8775199
-259,2509027 -737,5167947 262,6722841
-267,8544479 -759,8181354 269,2707507
-267,9160437 -699,006606 259,1934122
-283,1894634 -682,8738928 255,4918488
-303,1951853 -664,7044744 258,0252524
-270,7176784 -662,4267941 256,1758288
-265,9689293 -662,8632175 252,8934768
-275,1009418 -695,5652588 258,2009752
-288,9198947 -697,8884234 249,2274309
-296,1937104 -653,4471498 257,425988
-253,2083386 -738,1561598 262,7753502
-251,881094 -691,3886758 251,0178559
-268,373089 -651,7755134 254,4221024
-289,6861167 -709,1036858 255,0140892
-263,8186405 -710,7507132 261,6533031
-251,607437 -694,7751369 250,9905041
-279,6765564 -645,514886 255,619416
-276,3319911 -691,9044404 254,8344546
-269,3366622 -722,7092836 264,3662232
-282,4690436 -657,892232 257,0375821
-285,3776964 -661,0746763 256,1657946
-252,1409741 -722,9987434 262,2898264
-290,3318698 -680,9345704 256,3255561
-279,0922239 -705,2217821 256,2993888
-278,8690789 -716,5035156 256,1512481
-265,2389238 -755,7126421 269,0399476
-291,493642 -699,4634913 256,5053755
-257,8234766 -741,1231636 262,5348025
-251,3867938 -734,5900311 262,0984746
-265,2308591 -755,1648733 269,0544579
-251,7040205 -733,4821457 262,0455096
-250,7189199 -678,2279419 248,5055494
-260,1052604 -651,5703519 253,5427068
-290,4022122 -674,0522432 256,2026417
-292,377294 -656,1750339 256,7573684
-281,7150064 -670,8777267 243,5595784
-258,6772285 -730,3563777 263,2228181
-248,3772656 -721,9687161 261,9873339
-281,4221037 -667,204477 244,2168973
-248,8106757 -716,7191023 250,7381091
-267,5385333 -670,99562 255,0170562
-280,5926617 -694,0901502 255,7271859
-263,1059362 -658,2671599 253,7654893
-256,0353898 -737,2844223 262,4679242
-262,6879442 -684,9580619 253,5399579
-294,80257 -684,8091282 256,8711246
-287,8256608 -683,6089147 256,3016548
-275,4792277 -652,9033188 255,2300715
-251,3055539 -698,1637172 251,0332064
-269,5158911 -660,0307146 254,6758036
-282,5590531 -669,5496902 256,1815165
-276,1899353 -642,0020294 255,7182552
-289,3481032 -675,2630145 256,423082
-290,9101243 -696,6274246 256,4138253
-260,4384698 -746,6592022 266,2338132
-260,5865591 -649,5857034 253,8446452
-295,3661899 -653,4607826 257,1619768
-274,755092 -683,7229298 254,8425904
-264,9575875 -704,8671401 252,7260869
-286,6363194 -712,8970451 255,500464
-259,0429176 -662,1355492 253,2505272
-251,8495426 -739,3021822 263,8856222
-288,5721104 -696,9972363 248,6207732
-259,2011309 -651,6173015 253,4996423
-273,4555995 -709,7872757 254,4018391
-299,3261426 -676,3507282 257,3941494
-250,2046559 -678,0400013 251,9343147
-271,0977055 -642,5419066 255,2468495
-282,9480012 -714,0891843 254,716319
-254,1966033 -746,9746689 263,3382057
-270,9807462 -644,7887698 254,8160517
-253,2431914 -655,0448249 253,1277741
-288,7283064 -703,4418856 255,0458423
-251,3071125 -660,9856765 251,9983956
-254,8308997 -728,4670812 262,3687356
-255,9180508 -749,7119179 262,1397668
-280,4121702 -666,417963 252,6664426
-276,0503355 -657,1854484 255,3528854
-259,3985573 -753,0245663 273,4103189
-267,3366941 -700,7077564 259,1361271
-273,5682811 -715,3051418 263,0471559
-270,4527038 -698,6768375 259,6926361
-257,053129 -728,43856 262,7870272
-251,0707081 -730,1874984 262,0866103
-290,1144453 -694,6383849 256,1056384
-242,1270707 -720,4388749 261,2638784
-279,8250984 -688,974304 255,3491331
-279,5604726 -655,1289215 256,5593836
-261,9033509 -699,665007 241,1283988
-250,7728269 -698,7301351 250,8586886
-270,5986653 -753,5193573 264,4505472
-279,693273 -650,1162898 255,582939
-264,8375301 -746,0884729 267,8343773
-288,1834846 -683,8726345 256,2087627
-256,3338308 -703,7936348 253,6088288
-257,515499 -705,6227631 252,245263
-283,0023197 -660,3147839 255,8866111
-264,7720288 -705,8429195 259,4303843
-267,1763321 -676,9193523 254,4725144
-254,4567165 -726,5465208 262,5216607
-273,3134116 -686,6636933 255,3137068
-256,8718277 -656,5630158 253,2497594
-271,8976259 -691,0045561 255,741215
-278,0977101 -675,7887356 253,6429606
-286,2894024 -657,0232392 256,2629339
-270,4011343 -666,5795005 254,8341607
-246,7772489 -700,7942557 250,2973826
-268,8867789 -693,5719865 258,3570221
-249,2065357 -691,7597619 250,8797198
-252,7326389 -724,3666497 262,3227674
-271,3556158 -659,7752946 253,3261137
-256,1661473 -709,0629381 252,6201371
-278,4680942 -710,4193211 252,2554639
-262,4690659 -652,6083483 253,7876456
-265,3261824 -716,3427004 251,2810286
-270,0641707 -733,2398746 264,1722395
-253,2004352 -735,4207103 263,4638983
-260,1526309 -730,9085909 263,9912645
-290,9422488 -683,7733125 256,3619979
-291,2814601 -706,9455551 257,6217547
-275,3111655 -700,7682566 259,8228561
-275,7045582 -682,1029977 256,1814573
-295,7627517 -672,4339424 256,8958497
-272,4728531 -742,9302493 264,9524628
-263,1840175 -656,5362773 253,5847283
-269,0717053 -739,1113879 265,7431052
-250,7225016 -719,7033775 262,0439869
-256,8923778 -686,6694077 254,2446627
-287,176664 -692,4689331 256,3268264
-277,2496934 -663,1064688 257,5454225
-258,5758442 -680,5669575 253,0873152
-258,9008201 -715,5104166 254,1143247
-257,9385174 -676,3599402 253,1124966
-288,5066262 -695,1719123 254,8496872
-283,5876681 -688,5279641 258,6677216
-293,7908914 -669,6674098 257,0541362
-260,9374024 -722,8616132 263,5143049
-257,0163987 -733,1576178 263,6186442
-270,8065247 -744,8733953 263,958761
-260,4443463 -723,4144199 263,2633124
-292,0587214 -657,6324858 256,7523839
-272,9606276 -757,881229 269,9720867
-247,8747877 -726,1062073 261,8184049
-252,3363382 -670,0597957 252,5663252
-269,5536707 -760,3635997 269,5139435
-288,7256036 -706,0814389 256,3785306
-268,7216922 -720,7740462 264,357665
-254,4796232 -747,4389901 258,441459
-288,7559279 -699,0641695 253,631596
-267,6978196 -704,8683923 258,3416708
-251,2629609 -700,986787 251,1777001
-297,4474545 -669,8146446 257,3649948
-274,0124039 -646,9264262 255,0053386
-285,4371934 -684,7098606 258,0508262
-264,5248479 -706,8722855 257,9034349
-249,3628914 -700,1696629 250,6258095
-286,8031476 -663,1869936 255,1350461
-249,9104597 -693,6868411 250,6726369
-268,8710038 -671,7660667 254,8074413
-265,7603973 -703,7067049 257,1619629
-271,7422998 -651,3062072 254,5243264
-271,0218301 -646,4981461 254,7299521
-263,0680754 -728,3748583 264,1967163
-263,1333199 -694,9357814 239,6372706
-278,2148645 -651,0400724 255,3909391
-265,2340786 -716,0714211 251,4915819
-262,07679 -736,9343017 263,1022383
-271,8473531 -661,825106 256,4195625
-284,7639981 -649,0359555 256,1772843
-245,364053 -718,9815365 261,2847208
-297,5049002 -656,2567887 257,3330283
-275,0445643 -656,6802172 255,4989675
-256,8573892 -697,3300231 249,4076891
-250,4532153 -695,3678809 250,8508488
-290,4818108 -678,0398818 256,0195307
-261,1206445 -731,7158548 263,8504761
-263,1474876 -695,1016878 253,297023
-244,358097 -699,7532781 250,2873978
-296,8815835 -654,8413212 257,3116704
-296,6644908 -677,8608767 256,9764689
-288,6828892 -652,0290735 256,5567309
